30 30 30 30 30 30 30 30 30 30 30 30 30 30 30 30 30 30 30 30 32 32 32 32 32 32 32 32 32 32 32 32 32 32 32 32 34 34 34 34 34 34 34 34 34 35 37 38 36 36 36 36 36 36 36 36 34 35 37 38 38 38 38 38 38 38 38 38 38 38 38 38 40 40 40 40 40 40 40 40 40 40 40 40 40 40 40 40 40 40 40 40 42 42 42 42 42 42 42 42 42 42 42 42 42 42 42 42 42 42 42 42 42 42 42 42 44 44 44 44 44 44 44 44 44 44 44 44 44 44 44 44 44 44 44 44 46 46 46 46 46 47 49 50 50 51 53 54 52 53 55 56 56 57 59 60 58 59 61 62 58 59 61 62 62 63 65 66 66 86 113 119 120 121 123 124 124 125 127 128 128 128 128 128 128 129 131 132 134 134 134 134 136 136 136 136 136 137 139 140 140 141 143 144 144 144 144 144 146 146 146 146 148 148 148 148 150 150 150 150 152 152 152 152 154 154 154 154 154 154 154 154 156 156 156 156 158 158 158 158 160 160 160 160 162 162 162 162 162 162 162 162 162 163 165 166
30 30 30 30 30 30 30 30 30 30 30 30 30 30 30 30 30 30 30 30 32 32 32 32 32 32 32 32 32 32 32 32 32 32 32 32 34 34 34 34 34 34 34 34 34 35 37 38 36 36 36 36 36 36 36 36 34 35 37 38 38 38 38 38 38 38 38 38 38 38 38 38 40 40 40 40 40 40 40 40 40 40 40 40 40 40 40 40 40 40 40 40 42 42 42 42 42 42 42 42 42 42 42 42 42 42 42 42 42 42 42 42 42 42 42 42 44 44 44 44 44 44 44 44 44 44 44 44 44 44 44 44 44 44 44 44 46 46 46 46 46 47 49 50 50 51 53 54 52 53 55 56 56 57 59 60 58 59 61 62 58 59 61 62 62 63 65 66 66 86 113 119 120 121 123 124 124 125 127 128 128 128 128 128 128 129 131 132 134 134 134 134 136 136 136 136 136 137 139 140 140 141 143 144 144 144 144 144 146 146 146 146 148 148 148 148 150 150 150 150 152 152 152 152 154 154 154 154 154 154 154 154 156 156 156 156 158 158 158 158 160 160 160 160 162 162 162 162 163 163 163 163 163 164 166 167
30 30 30 30 30 30 30 30 30 30 30 30 30 30 30 30 30 30 30 30 32 32 32 32 32 32 32 32 32 32 32 32 32 32 32 32 34 34 34 34 34 34 34 34 34 35 37 38 36 36 36 36 36 36 36 36 34 35 37 38 38 38 38 38 38 38 38 38 38 38 38 38 40 40 40 40 40 40 40 40 40 40 40 40 40 40 40 40 40 40 40 40 42 42 42 42 42 42 42 42 42 42 42 42 42 42 42 42 42 42 42 42 42 42 42 42 44 44 44 44 44 44 44 44 44 44 44 44 44 44 44 44 44 44 44 44 46 46 46 46 46 47 49 50 50 51 53 54 52 53 55 56 56 57 59 60 58 59 61 62 58 59 61 62 62 63 65 66 66 86 113 119 120 121 123 124 124 125 127 128 128 128 128 128 128 129 131 132 134 134 134 134 136 136 136 136 136 137 139 140 140 141 143 144 144 144 144 144 146 146 146 146 148 148 148 148 150 150 150 150 152 152 152 152 154 154 154 154 154 154 154 154 156 156 156 156 158 158 158 158 160 160 160 160 162 162 162 162 165 165 165 165 165 166 167 168
30 30 30 30 30 30 30 30 30 30 30 30 30 30 30 30 30 30 30 30 32 32 32 32 32 32 32 32 32 32 32 32 32 32 32 32 34 34 34 34 34 34 34 34 34 35 37 38 36 36 36 36 36 36 36 36 34 35 37 38 38 38 38 38 38 38 38 38 38 38 38 38 40 40 40 40 40 40 40 40 40 40 40 40 40 40 40 40 40 40 40 40 42 42 42 42 42 42 42 42 42 42 42 42 42 42 42 42 42 42 42 42 42 42 42 42 44 44 44 44 44 44 44 44 44 44 44 44 44 44 44 44 44 44 44 44 46 46 46 46 46 47 49 50 50 51 53 54 52 53 55 56 56 57 59 60 58 59 61 62 58 59 61 62 62 63 65 66 66 86 113 119 120 121 123 124 124 125 127 128 128 128 128 128 128 129 131 132 134 134 134 134 136 136 136 136 136 137 139 140 140 141 143 144 144 144 144 144 146 146 146 146 148 148 148 148 150 150 150 150 152 152 152 152 154 154 154 154 154 154 154 154 156 156 156 156 158 158 158 158 160 160 160 160 162 162 162 162 166 166 166 166 166 167 168 170
30 30 30 30 30 30 30 30 30 30 30 30 30 30 30 30 32 32 32 32 32 32 32 32 32 32 32 32 32 32 32 32 32 32 32 32 34 34 34 34 34 34 34 34 32 33 35 36 36 36 36 36 36 36 36 36 34 35 37 38 38 38 38 38 38 38 38 38 38 38 38 38 40 40 40 40 40 40 40 40 40 40 40 40 40 40 40 40 42 42 42 42 42 42 42 42 42 42 42 42 42 42 42 42 42 42 42 42 42 42 42 42 44 44 44 44 44 44 44 44 44 44 44 44 44 44 44 44 44 44 44 44 44 44 44 44 46 46 46 46 46 47 49 50 50 51 53 54 54 55 57 58 56 57 59 60 56 57 59 60 58 59 61 62 62 63 65 66 66 86 113 119 120 121 123 124 124 125 127 128 130 130 130 130 132 132 132 132 134 134 134 134 134 135 137 138 138 139 141 142 140 141 143 144 144 145 147 148 148 148 148 148 150 150 150 150 152 152 152 152 154 154 154 154 156 156 156 156 154 154 154 154 156 156 156 156 160 160 160 160 160 160 160 160 160 161 163 164 164 165 167 168 165 169 170 168
30 30 30 30 30 30 30 30 30 30 30 30 30 30 30 30 32 32 32 32 32 32 32 32 32 32 32 32 32 32 32 32 32 32 32 32 34 34 34 34 34 34 34 34 32 33 35 36 36 36 36 36 36 36 36 36 34 35 37 38 38 38 38 38 38 38 38 38 38 38 38 38 40 40 40 40 40 40 40 40 40 40 40 40 40 40 40 40 42 42 42 42 42 42 42 42 42 42 42 42 42 42 42 42 42 42 42 42 43 43 43 43 44 44 44 44 44 44 44 44 44 44 44 44 44 44 44 44 44 44 44 44 44 44 44 44 46 46 46 46 46 47 49 50 50 51 53 54 54 55 57 58 56 57 59 60 56 57 59 60 58 59 61 62 62 63 65 66 66 86 113 119 120 121 123 124 124 125 127 128 130 130 130 130 132 132 132 132 134 134 134 134 134 135 137 138 138 139 141 142 140 141 143 144 144 145 147 148 148 148 148 148 150 150 150 150 152 152 152 152 154 154 154 154 156 156 156 156 155 155 155 155 157 157 157 157 160 160 160 160 161 161 161 161 161 162 164 165 165 166 168 169 167 170 173 171
30 30 30 30 30 30 30 30 30 30 30 30 30 30 30 30 32 32 32 32 32 32 32 32 32 32 32 32 32 32 32 32 32 32 32 32 34 34 34 34 34 34 34 34 32 33 35 36 36 36 36 36 36 36 36 36 34 35 37 38 38 38 38 38 38 38 38 38 38 38 38 38 40 40 40 40 40 40 40 40 40 40 40 40 40 40 40 40 42 42 42 42 42 42 42 42 42 42 42 42 42 42 42 42 42 42 42 42 45 45 45 45 44 44 44 44 44 44 44 44 44 44 44 44 44 44 44 44 44 44 44 44 44 44 44 44 46 46 46 46 46 47 49 50 50 51 53 54 54 55 57 58 56 57 59 60 56 57 59 60 58 59 61 62 62 63 65 66 66 86 113 119 120 121 123 124 124 125 127 128 130 130 130 130 132 132 132 132 134 134 134 134 134 135 137 138 138 139 141 142 140 141 143 144 144 145 147 148 148 148 148 148 150 150 150 150 152 152 152 152 154 154 154 154 156 156 156 156 157 157 157 157 159 159 159 159 160 160 160 160 163 163 163 163 163 164 165 166 167 168 169 170 170 174 175 174
30 30 30 30 30 30 30 30 30 30 30 30 30 30 30 30 32 32 32 32 32 32 32 32 32 32 32 32 32 32 32 32 32 32 32 32 34 34 34 34 34 34 34 34 32 33 35 36 36 36 36 36 36 36 36 36 34 35 37 38 38 38 38 38 38 38 38 38 38 38 38 38 40 40 40 40 40 40 40 40 40 40 40 40 40 40 40 40 42 42 42 42 42 42 42 42 42 42 42 42 42 42 42 42 42 42 42 42 46 46 46 46 44 44 44 44 44 44 44 44 44 44 44 44 44 44 44 44 44 44 44 44 44 44 44 44 46 46 46 46 46 47 49 50 50 51 53 54 54 55 57 58 56 57 59 60 56 57 59 60 58 59 61 62 62 63 65 66 66 86 113 119 120 121 123 124 124 125 127 128 130 130 130 130 132 132 132 132 134 134 134 134 134 135 137 138 138 139 141 142 140 141 143 144 144 145 147 148 148 148 148 148 150 150 150 150 152 152 152 152 154 154 154 154 156 156 156 156 158 158 158 158 160 160 160 160 160 160 160 160 164 164 164 164 164 165 166 168 168 169 170 172 173 176 178 176
30 30 30 30 30 30 30 30 30 30 30 30 32 32 32 32 32 32 32 32 32 32 32 32 32 32 32 32 32 32 32 32 32 32 32 32 34 34 34 34 34 34 34 34 34 34 34 34 36 36 36 36 36 36 36 36 34 35 37 38 38 38 38 38 38 38 38 38 38 38 38 38 40 40 40 40 40 40 40 40 40 40 40 40 42 42 42 42 42 42 42 42 42 42 42 42 42 42 42 42 44 44 44 44 44 44 44 44 48 48 48 48 46 45 43 42 44 44 44 44 44 44 44 44 44 44 44 44 44 44 44 44 46 46 46 46 46 46 46 46 46 47 49 50 52 52 52 52 52 53 55 56 56 57 59 60 56 57 59 60 60 60 60 60 62 62 62 62 65 80 109 121 122 123 125 126 126 127 129 130 132 132 132 132 134 134 134 134 136 136 136 136 138 138 138 138 140 140 140 140 142 143 145 146 146 146 146 146 148 148 148 148 148 149 151 152 154 154 154 154 156 156 156 156 158 158 158 158 160 160 160 160 158 159 161 162 160 161 163 164 164 162 161 162 165 169 170 170 166 169 171 170 173 180 182 177
30 30 30 30 30 30 30 30 30 30 30 30 32 32 32 32 32 32 32 32 32 32 32 32 32 32 32 32 32 32 32 32 32 32 32 32 34 34 34 34 34 34 34 34 34 34 34 34 36 36 36 36 36 36 36 36 34 35 37 38 38 38 38 38 38 38 38 38 38 38 38 38 40 40 40 40 40 40 40 40 40 40 40 40 42 42 42 42 42 42 42 42 42 42 42 42 43 43 43 43 45 45 45 45 45 45 45 45 48 48 48 48 47 46 44 43 44 44 44 44 44 44 44 44 44 44 44 44 44 44 44 44 46 46 46 46 46 46 46 46 46 47 49 50 52 52 52 52 52 53 55 56 56 57 59 60 56 57 59 60 60 60 60 60 62 62 62 62 64 77 105 120 122 123 125 126 126 127 129 130 132 132 132 132 134 134 134 134 136 136 136 136 138 138 138 138 140 140 140 140 142 143 145 146 146 146 146 146 148 148 148 148 148 149 151 152 154 154 154 154 156 156 156 156 158 158 158 158 160 160 160 160 159 160 162 163 161 162 164 165 162 162 164 167 168 165 165 168 172 170 173 177 175 181 182 179
30 30 30 30 30 30 30 30 30 30 30 30 32 32 32 32 32 32 32 32 32 32 32 32 32 32 32 32 32 32 32 32 32 32 32 32 34 34 34 34 34 34 34 34 34 34 34 34 36 36 36 36 36 36 36 36 34 35 37 38 38 38 38 38 38 38 38 38 38 38 38 38 40 40 40 40 40 40 40 40 40 40 40 40 42 42 42 42 42 42 42 42 42 42 42 42 45 45 45 45 47 47 47 47 47 47 47 47 48 48 48 48 48 47 46 45 44 44 44 44 44 44 44 44 44 44 44 44 44 44 44 44 46 46 46 46 46 46 46 46 46 47 49 50 52 52 52 52 52 53 55 56 56 57 59 60 56 57 59 60 60 60 60 60 62 62 62 62 62 72 100 118 122 123 125 126 126 127 129 130 132 132 132 132 134 134 134 134 136 136 136 136 138 138 138 138 140 140 140 140 142 143 145 146 146 146 146 146 148 148 148 148 148 149 151 152 154 154 154 154 156 156 156 156 158 158 158 158 160 160 160 160 161 162 163 164 163 164 165 166 170 174 175 170 166 170 174 175 170 173 178 180 179 180 182 183
30 30 30 30 30 30 30 30 30 30 30 30 32 32 32 32 32 32 32 32 32 32 32 32 32 32 32 32 32 32 32 32 32 32 32 32 34 34 34 34 34 34 34 34 34 34 34 34 36 36 36 36 36 36 36 36 34 35 37 38 38 38 38 38 38 38 38 38 38 38 38 38 40 40 40 40 40 40 40 40 40 40 40 40 42 42 42 42 42 42 42 42 42 42 42 42 46 46 46 46 48 48 48 48 48 48 48 48 48 48 48 48 50 48 47 46 44 44 44 44 44 44 44 44 44 44 44 44 44 44 44 44 46 46 46 46 46 46 46 46 46 47 49 50 52 52 52 52 52 53 55 56 56 57 59 60 56 57 59 60 60 60 60 60 62 62 62 62 61 69 97 117 122 123 125 126 126 127 129 130 132 132 132 132 134 134 134 134 136 136 136 136 138 138 138 138 140 140 140 140 142 143 145 146 146 146 146 146 148 148 148 148 148 149 151 152 154 154 154 154 156 156 156 156 158 158 158 158 160 160 160 160 162 163 164 166 164 165 166 168 194 255 279 252 221 189 170 176 175 188 193 187 180 180 181 184
30 30 30 30 32 32 32 32 32 32 32 32 32 32 32 32 32 32 32 32 32 32 32 32 32 32 32 32 32 32 32 32 34 34 34 34 34 34 34 34 34 34 34 34 32 33 35 36 36 36 36 36 36 36 36 36 36 36 36 36 38 38 38 38 38 38 38 38 38 38 38 38 40 40 40 40 40 40 40 40 40 41 43 44 42 42 42 42 42 42 42 42 44 44 44 44 48 48 48 48 48 48 48 48 48 48 48 48 48 48 48 48 48 48 48 48 48 48 48 48 44 44 44 44 42 42 42 42 46 46 46 46 46 46 46 46 44 45 47 48 46 47 49 50 52 52 52 52 52 53 55 56 56 57 59 60 56 57 59 60 60 60 60 60 62 62 62 62 64 67 91 122 124 125 127 128 128 129 131 132 132 132 132 132 134 134 134 134 134 135 137 138 136 137 139 140 140 141 143 144 144 144 144 144 144 145 147 148 150 150 150 150 152 152 152 152 154 154 154 154 158 158 158 158 160 160 160 160 158 159 161 162 166 163 172 168 169 168 173 194 258 337 367 362 348 294 239 217 220 230 226 201 187 183 188 185
31 31 31 31 32 32 32 32 32 32 32 32 32 32 32 32 32 32 32 32 32 32 32 32 32 32 32 32 32 32 32 32 34 34 34 34 34 34 34 34 34 34 34 34 32 33 35 36 36 36 36 36 36 36 36 36 36 36 36 36 38 38 38 38 38 38 38 38 38 38 38 38 40 40 40 40 40 40 40 40 40 41 43 44 42 42 42 42 43 43 43 43 45 45 45 45 48 48 48 48 48 48 48 48 48 48 48 48 48 48 48 48 48 48 48 48 48 48 48 48 45 45 45 45 43 43 43 43 46 46 46 46 46 46 46 46 44 45 47 48 46 47 49 50 52 52 52 52 52 53 55 56 56 57 59 60 56 57 59 60 60 60 60 60 62 62 62 62 64 67 91 122 124 125 127 128 128 129 131 132 132 132 132 132 134 134 134 134 134 135 137 138 136 137 139 140 140 141 143 144 144 144 144 144 144 145 147 148 150 150 150 150 152 152 152 152 154 154 154 154 158 158 158 158 160 160 160 160 159 160 162 163 163 208 279 305 303 295 295 315 338 375 391 396 394 390 374 354 348 345 313 230 197 186 191 197
33 33 33 33 32 32 32 32 32 32 32 32 32 32 32 32 32 32 32 32 32 32 32 32 32 32 32 32 32 32 32 32 34 34 34 34 34 34 34 34 34 34 34 34 32 33 35 36 36 36 36 36 36 36 36 36 36 36 36 36 38 38 38 38 38 38 38 38 38 38 38 38 40 40 40 40 40 40 40 40 40 41 43 44 42 42 42 42 45 45 45 45 47 47 47 47 48 48 48 48 48 48 48 48 48 48 48 48 48 48 48 48 48 48 48 48 48 48 48 48 47 47 47 47 45 45 45 45 46 46 46 46 46 46 46 46 44 45 47 48 46 47 49 50 52 52 52 52 52 53 55 56 56 57 59 60 56 57 59 60 60 60 60 60 62 62 62 62 64 67 91 122 124 125 127 128 128 129 131 132 132 132 132 132 134 134 134 134 134 135 137 138 136 137 139 140 140 141 143 144 144 144 144 144 144 145 147 148 150 150 150 150 152 152 152 152 154 154 154 154 158 158 158 158 160 160 160 160 161 162 163 164 172 260 367 386 390 394 386 381 384 388 395 403 403 403 402 400 405 405 387 320 248 212 204 215
34 34 34 34 32 32 32 32 32 32 32 32 32 32 32 32 32 32 32 32 32 32 32 32 32 32 32 32 32 32 32 32 34 34 34 34 34 34 34 34 34 34 34 34 32 33 35 36 36 36 36 36 36 36 36 36 36 36 36 36 38 38 38 38 38 38 38 38 38 38 38 38 40 40 40 40 40 40 40 40 40 41 43 44 42 42 42 42 46 46 46 46 48 48 48 48 48 48 48 48 48 48 48 48 48 48 48 48 48 48 48 48 48 48 48 48 48 48 48 48 48 48 48 48 46 46 46 46 46 46 46 46 46 46 46 46 44 45 47 48 46 47 49 50 52 52 52 52 52 53 55 56 56 57 59 60 56 57 59 60 60 60 60 60 62 62 62 62 64 67 91 122 124 125 127 128 128 129 131 132 132 132 132 132 134 134 134 134 134 135 137 138 136 137 139 140 140 141 143 144 144 144 144 144 144 145 147 148 150 150 150 150 152 152 152 152 154 154 154 154 158 158 158 158 160 160 160 160 162 163 164 166 171 254 368 392 391 399 398 402 400 402 408 409 407 407 408 412 415 412 412 406 379 349 321 298
32 32 32 32 32 32 32 32 32 32 32 32 32 32 32 32 32 32 32 32 32 32 32 32 32 32 32 32 32 32 32 32 34 34 34 34 34 34 34 34 34 34 34 34 32 33 35 36 36 36 36 36 36 36 36 36 36 36 36 36 38 38 38 38 38 38 38 38 38 38 38 38 40 40 40 40 40 40 40 40 42 42 42 42 42 43 45 46 46 46 46 46 48 48 48 48 48 48 48 48 46 46 46 46 50 50 50 50 50 50 50 50 50 50 50 50 50 50 50 50 48 48 48 48 46 46 46 46 46 46 46 46 46 46 46 46 48 48 48 48 48 49 51 52 52 52 52 52 52 53 55 56 56 57 59 60 56 57 59 60 60 60 60 60 62 62 62 62 65 65 93 121 124 125 127 128 128 129 131 132 130 131 133 134 136 136 136 136 138 138 138 138 140 140 140 140 140 141 143 144 142 143 145 146 146 147 149 150 148 149 151 152 152 153 155 156 154 155 157 158 158 158 158 158 158 159 161 162 162 163 165 166 172 214 318 381 391 392 393 401 400 403 405 408 410 411 413 414 416 417 419 420 421 424 416 401
32 32 32 32 32 32 32 32 32 32 32 32 32 32 32 32 32 32 32 32 32 32 32 32 32 32 32 32 32 32 32 32 34 34 34 34 34 34 34 34 34 34 34 34 32 33 35 36 36 36 36 36 36 36 36 36 36 36 36 36 38 38 38 38 38 38 38 38 38 38 38 38 40 40 40 40 40 40 40 40 42 42 42 42 42 43 45 46 46 46 46 46 48 48 48 48 48 48 48 48 47 47 47 47 50 50 50 50 50 50 50 50 50 50 50 50 50 50 50 50 48 48 48 48 46 46 46 46 46 46 46 46 46 46 46 46 48 48 48 48 48 49 51 52 52 52 52 52 52 53 55 56 56 57 59 60 56 57 59 60 60 60 60 60 62 62 62 62 65 65 93 121 124 125 127 128 128 129 131 132 130 131 133 134 136 136 136 136 138 138 138 138 140 140 140 140 140 141 143 144 142 143 145 146 146 147 149 150 148 149 151 152 152 153 155 156 154 155 157 158 158 158 158 158 159 160 162 163 163 164 166 167 173 183 244 332 372 386 389 395 400 403 405 408 410 411 413 414 416 417 419 420 422 423 425 425
32 32 32 32 32 32 32 32 32 32 32 32 32 32 32 32 32 32 32 32 32 32 32 32 32 32 32 32 32 32 32 32 34 34 34 34 34 34 34 34 34 34 34 34 32 33 35 36 36 36 36 36 36 36 36 36 36 36 36 36 38 38 38 38 38 38 38 38 38 38 38 38 40 40 40 40 40 40 40 40 42 42 42 42 42 43 45 46 46 46 46 46 48 48 48 48 48 48 48 48 49 49 49 49 50 50 50 50 50 50 50 50 50 50 50 50 50 50 50 50 48 48 48 48 46 46 46 46 46 46 46 46 46 46 46 46 48 48 48 48 48 49 51 52 52 52 52 52 52 53 55 56 56 57 59 60 56 57 59 60 60 60 60 60 62 62 62 62 65 65 93 121 124 125 127 128 128 129 131 132 130 131 133 134 136 136 136 136 138 138 138 138 140 140 140 140 140 141 143 144 142 143 145 146 146 147 149 150 148 149 151 152 152 153 155 156 154 155 157 158 158 158 158 158 161 162 163 164 165 166 167 168 172 181 202 267 331 372 386 398 400 403 405 408 410 411 413 414 416 417 419 420 425 422 422 423
32 32 32 32 32 32 32 32 32 32 32 32 32 32 32 32 32 32 32 32 32 32 32 32 32 32 32 32 32 32 32 32 34 34 34 34 34 34 34 34 34 34 34 34 32 33 35 36 36 36 36 36 36 36 36 36 36 36 36 36 38 38 38 38 38 38 38 38 38 38 38 38 40 40 40 40 40 40 40 40 42 42 42 42 42 43 45 46 46 46 46 46 48 48 48 48 48 48 48 48 50 50 50 50 50 50 50 50 50 50 50 50 50 50 50 50 50 50 50 50 48 48 48 48 46 46 46 46 46 46 46 46 46 46 46 46 48 48 48 48 48 49 51 52 52 52 52 52 52 53 55 56 56 57 59 60 56 57 59 60 60 60 60 60 62 62 62 62 65 65 93 121 124 125 127 128 128 129 131 132 130 131 133 134 136 136 136 136 138 138 138 138 140 140 140 140 140 141 143 144 142 143 145 146 146 147 149 150 148 149 151 152 152 153 155 156 154 155 157 158 158 158 158 158 162 163 164 166 166 167 168 170 175 182 189 227 283 348 376 397 400 403 405 408 410 411 413 414 416 417 419 420 422 424 426 426
32 32 32 32 32 32 32 32 32 32 32 32 32 32 32 32 32 32 32 32 32 32 32 32 32 32 32 32 34 34 34 34 34 34 34 34 34 34 34 34 34 34 34 34 32 33 35 36 36 36 36 36 36 36 36 36 34 35 37 38 38 38 38 38 38 38 38 38 40 40 40 40 40 40 40 40 40 41 43 44 42 42 42 42 42 43 45 46 44 45 47 48 48 48 48 48 50 50 50 50 50 50 50 50 50 50 50 50 50 50 50 50 50 50 50 50 50 50 50 50 50 50 50 50 48 48 48 48 48 48 48 48 48 48 48 48 48 48 48 48 50 50 50 50 52 52 52 52 54 54 54 54 54 55 57 58 56 57 59 60 60 60 60 60 62 62 62 62 62 64 97 121 122 123 125 126 128 129 131 132 130 131 133 134 134 135 137 138 138 138 138 138 138 139 141 142 144 144 144 144 146 146 146 146 146 147 149 150 150 151 153 154 152 153 155 156 156 157 159 160 158 161 158 164 162 164 165 173 172 170 169 171 179 181 188 210 265 332 367 394 402 403 404 406 406 408 411 414 414 416 419 422 422 422 422 422
33 33 33 33 32 32 32 32 32 32 32 32 32 32 32 32 32 32 32 32 32 32 32 32 32 32 32 32 34 34 34 34 34 34 34 34 34 34 34 34 34 34 34 34 32 33 35 36 36 36 36 36 36 36 36 36 34 35 37 38 38 38 38 38 38 38 38 38 40 40 40 40 40 40 40 40 40 41 43 44 42 42 42 42 42 43 45 46 44 45 47 48 48 48 48 48 50 50 50 50 50 50 50 50 50 50 50 50 50 50 50 50 50 50 50 50 50 50 50 50 50 50 50 50 48 48 48 48 48 48 48 48 48 48 48 48 48 48 48 48 50 50 50 50 52 52 52 52 54 54 54 54 54 55 57 58 56 57 59 60 60 60 60 60 62 62 62 62 63 66 99 120 122 123 125 126 128 129 131 132 130 131 133 134 134 135 137 138 138 138 138 138 138 139 141 142 144 144 144 144 146 146 146 146 146 147 149 150 150 151 153 154 152 153 155 156 156 157 159 160 156 165 163 166 163 164 170 164 167 171 173 172 174 184 192 242 299 339 364 391 399 401 402 403 403 406 409 411 413 415 418 420 422 422 422 422
35 35 35 35 32 32 32 32 32 32 32 32 32 32 32 32 32 32 32 32 32 32 32 32 32 32 32 32 34 34 34 34 34 34 34 34 34 34 34 34 34 34 34 34 32 33 35 36 36 36 36 36 36 36 36 36 34 35 37 38 38 38 38 38 38 38 38 38 40 40 40 40 40 40 40 40 40 41 43 44 42 42 42 42 42 43 45 46 44 45 47 48 48 48 48 48 50 50 50 50 50 50 50 50 50 50 50 50 50 50 50 50 50 50 50 50 50 50 50 50 50 50 50 50 48 48 48 48 48 48 48 48 48 48 48 48 48 48 48 48 50 50 50 50 52 52 52 52 54 54 54 54 54 55 57 58 56 57 59 60 60 60 60 60 62 62 62 62 62 69 103 120 122 123 125 126 128 129 131 132 130 131 133 134 134 135 137 138 138 138 138 138 138 139 141 142 144 144 144 144 146 146 146 146 146 147 149 150 150 151 153 154 152 153 155 156 156 157 159 160 161 163 159 163 161 163 165 169 174 173 174 175 177 186 244 318 355 363 368 384 397 397 399 400 401 402 406 408 411 413 417 419 422 422 422 422
36 36 36 36 32 32 32 32 32 32 32 32 32 32 32 32 32 32 32 32 32 32 32 32 32 32 32 32 34 34 34 34 34 34 34 34 34 34 34 34 34 34 34 34 32 33 35 36 36 36 36 36 36 36 36 36 34 35 37 38 38 38 38 38 38 38 38 38 40 40 40 40 40 40 40 40 40 41 43 44 42 42 42 42 42 43 45 46 44 45 47 48 48 48 48 48 50 50 50 50 50 50 50 50 50 50 50 50 50 50 50 50 50 50 50 50 50 50 50 50 50 50 50 50 48 48 48 48 48 48 48 48 48 48 48 48 48 48 48 48 50 50 50 50 52 52 52 52 54 54 54 54 54 55 57 58 56 57 59 60 60 60 60 60 62 62 62 62 62 71 105 120 122 123 125 126 128 129 131 132 130 131 133 134 134 135 137 138 138 138 138 138 138 139 141 142 144 144 144 144 146 146 146 146 146 147 149 150 150 151 153 154 152 153 155 156 156 157 159 160 164 163 167 186 228 244 206 186 181 177 187 204 248 317 356 376 374 373 375 383 394 395 396 398 398 400 403 406 410 413 415 418 422 422 422 422
34 34 34 34 34 34 34 34 32 32 32 32 32 32 32 32 32 32 32 32 32 32 32 32 32 32 32 32 34 34 34 34 34 34 34 34 34 34 34 34 34 34 34 34 34 35 37 38 36 36 36 36 36 36 36 36 36 37 39 40 38 38 38 38 38 38 38 38 40 40 40 40 40 40 40 40 42 42 42 42 42 42 42 42 44 44 44 44 44 45 47 48 46 47 49 50 50 50 50 50 50 50 50 50 48 48 48 48 50 50 50 50 50 50 50 50 50 50 50 50 50 50 50 50 50 50 50 50 46 46 46 46 46 46 46 46 50 50 50 50 52 52 52 52 54 54 54 54 56 56 56 56 58 58 58 58 60 60 60 60 62 62 62 62 62 63 65 66 63 74 108 122 122 123 125 126 126 127 129 130 130 131 133 134 134 135 137 138 136 137 139 140 140 141 143 144 144 144 144 144 144 145 147 148 148 149 151 152 150 151 153 154 154 155 157 158 158 159 161 162 163 172 199 298 354 365 341 304 282 276 301 342 375 383 385 381 379 372 375 385 389 394 396 396 400 401 402 404 408 410 413 416 420 421 422 424
35 35 35 35 34 34 34 34 32 32 32 32 32 32 32 32 32 32 32 32 32 32 32 32 32 32 32 32 34 34 34 34 34 34 34 34 34 34 34 34 34 34 34 34 34 35 37 38 36 36 36 36 36 36 36 36 36 37 39 40 38 38 38 38 38 38 38 38 40 40 40 40 40 40 40 40 42 42 42 42 42 42 42 42 44 44 44 44 44 45 47 48 46 47 49 50 50 50 50 50 50 50 50 50 49 49 49 49 50 50 50 50 50 50 50 50 50 50 50 50 50 50 50 50 50 50 50 50 47 47 47 47 47 47 47 47 50 50 50 50 52 52 52 52 54 54 54 54 56 56 56 56 58 58 58 58 60 60 60 60 62 62 62 62 62 63 65 66 65 76 110 121 122 123 125 126 126 127 129 130 130 131 133 134 134 135 137 138 136 137 139 140 140 141 143 144 144 144 144 144 144 145 147 148 148 149 151 152 150 151 153 154 154 155 157 158 158 159 161 162 164 179 281 377 395 401 410 404 399 400 399 396 394 386 382 382 378 372 372 379 384 389 393 394 397 399 400 401 405 408 411 413 417 419 420 421
37 37 37 37 34 34 34 34 32 32 32 32 32 32 32 32 32 32 32 32 32 32 32 32 32 32 32 32 34 34 34 34 34 34 34 34 34 34 34 34 34 34 34 34 34 35 37 38 36 36 36 36 36 36 36 36 36 37 39 40 38 38 38 38 38 38 38 38 40 40 40 40 40 40 40 40 42 42 42 42 42 42 42 42 44 44 44 44 44 45 47 48 46 47 49 50 50 50 50 50 50 50 50 50 51 51 51 51 50 50 50 50 50 50 50 50 50 50 50 50 50 50 50 50 50 50 50 50 49 49 49 49 49 49 49 49 50 50 50 50 52 52 52 52 54 54 54 54 56 56 56 56 58 58 58 58 60 60 60 60 62 62 62 62 62 63 65 66 66 81 112 118 122 123 125 126 126 127 129 130 130 131 133 134 134 135 137 138 136 137 139 140 140 141 143 144 144 144 144 144 144 145 147 148 148 149 151 152 150 151 153 154 154 155 157 158 158 159 161 162 163 176 252 363 403 414 411 401 401 397 394 394 390 390 386 378 366 365 367 372 377 384 390 391 395 395 397 398 403 404 408 410 415 415 417 418
38 38 38 38 34 34 34 34 32 32 32 32 32 32 32 32 32 32 32 32 32 32 32 32 32 32 32 32 34 34 34 34 34 34 34 34 34 34 34 34 34 34 34 34 34 35 37 38 36 36 36 36 36 36 36 36 36 37 39 40 38 38 38 38 38 38 38 38 40 40 40 40 40 40 40 40 42 42 42 42 42 42 42 42 44 44 44 44 44 45 47 48 46 47 49 50 50 50 50 50 50 50 50 50 52 52 52 52 50 50 50 50 50 50 50 50 50 50 50 50 50 50 50 50 50 50 50 50 50 50 50 50 50 50 50 50 50 50 50 50 52 52 52 52 54 54 54 54 56 56 56 56 58 58 58 58 60 60 60 60 62 62 62 62 62 63 65 66 68 84 114 117 122 123 125 126 126 127 129 130 130 131 133 134 134 135 137 138 136 137 139 140 140 141 143 144 144 144 144 144 144 145 147 148 148 149 151 152 150 151 153 154 154 155 157 158 158 159 161 162 165 167 182 248 335 397 404 400 403 394 386 383 376 362 349 347 350 355 362 367 373 380 387 389 392 393 394 396 400 402 405 408 412 413 414 416
38 38 38 38 38 37 35 34 34 34 34 34 34 34 34 34 34 34 34 34 34 34 34 34 34 34 34 34 34 34 34 34 34 34 34 34 34 34 34 34 34 34 34 34 36 36 36 36 36 36 36 36 36 36 36 36 36 37 39 40 38 38 38 38 38 38 38 38 40 40 40 40 40 40 40 40 42 42 42 42 42 42 42 42 44 44 44 44 44 45 47 48 48 49 51 52 52 52 52 52 52 52 52 52 52 52 52 52 52 52 52 52 52 52 52 52 52 52 52 52 50 50 50 50 50 50 50 50 50 50 50 50 50 50 50 50 50 50 50 50 52 52 52 52 54 54 54 54 56 56 56 56 58 58 58 58 60 60 60 60 62 62 62 62 62 63 65 66 70 86 111 118 120 121 123 124 126 127 129 130 130 131 133 134 134 135 137 138 136 137 139 140 140 141 143 144 142 143 145 146 146 147 149 150 148 149 151 152 152 153 155 156 154 155 157 158 158 159 161 162 162 165 171 174 212 289 344 344 340 335 328 323 309 301 300 321 331 350 358 362 368 373 381 387 386 388 391 394 396 398 401 404 408 409 410 412
38 38 38 38 38 37 35 34 34 34 34 34 34 34 34 34 34 34 34 34 34 34 34 34 34 34 34 34 34 34 34 34 34 34 34 34 34 34 34 34 34 34 34 34 36 36 36 36 36 36 36 36 36 36 36 36 36 37 39 40 38 38 38 38 38 38 38 38 40 40 40 40 40 40 40 40 42 42 42 42 42 42 42 42 44 44 44 44 44 45 47 48 48 49 51 52 52 52 52 52 52 52 52 52 52 52 52 52 52 52 52 52 52 52 52 52 52 52 52 52 51 51 51 51 51 51 51 51 51 51 51 51 51 51 51 51 51 51 51 51 53 53 53 53 55 55 55 55 57 57 57 57 59 59 59 59 61 61 61 61 63 63 63 63 63 64 66 67 70 86 111 118 120 121 123 124 126 127 129 130 130 131 133 134 134 135 137 138 136 137 139 140 140 141 143 144 142 143 145 146 146 147 149 150 148 149 151 152 152 153 155 156 154 155 157 158 158 159 161 162 162 165 169 171 169 186 209 225 225 229 234 237 241 252 264 284 312 338 352 358 362 368 376 381 385 387 390 392 395 397 400 402 405 407 408 409
38 38 38 38 38 37 35 34 34 34 34 34 34 34 34 34 34 34 34 34 34 34 34 34 34 34 34 34 34 34 34 34 34 34 34 34 34 34 34 34 34 34 34 34 36 36 36 36 36 36 36 36 36 36 36 36 36 37 39 40 38 38 38 38 38 38 38 38 40 40 40 40 40 40 40 40 42 42 42 42 42 42 42 42 44 44 44 44 44 45 47 48 48 49 51 52 52 52 52 52 52 52 52 52 52 52 52 52 52 52 52 52 52 52 52 52 52 52 52 52 53 53 53 53 53 53 53 53 53 53 53 53 53 53 53 53 53 53 53 53 55 55 55 55 57 57 57 57 59 59 59 59 61 61 61 61 63 63 63 63 65 65 65 65 65 66 67 68 70 86 111 118 120 121 123 124 126 127 129 130 130 131 133 134 134 135 137 138 136 137 139 140 140 141 143 144 142 143 145 146 146 147 149 150 148 149 151 152 152 153 155 156 154 155 157 158 158 159 161 162 162 164 166 168 169 172 180 188 193 201 213 221 228 241 251 267 289 324 346 355 359 364 372 379 383 385 389 391 393 395 399 401 403 403 405 406
38 38 38 38 38 37 35 34 34 34 34 34 34 34 34 34 34 34 34 34 34 34 34 34 34 34 34 34 34 34 34 34 34 34 34 34 34 34 34 34 34 34 34 34 36 36 36 36 36 36 36 36 36 36 36 36 36 37 39 40 38 38 38 38 38 38 38 38 40 40 40 40 40 40 40 40 42 42 42 42 42 42 42 42 44 44 44 44 44 45 47 48 48 49 51 52 52 52 52 52 52 52 52 52 52 52 52 52 52 52 52 52 52 52 52 52 52 52 52 52 54 54 54 54 54 54 54 54 54 54 54 54 54 54 54 54 54 54 54 54 56 56 56 56 58 58 58 58 60 60 60 60 62 62 62 62 64 64 64 64 66 66 66 66 66 67 68 70 70 86 111 118 120 121 123 124 126 127 129 130 130 131 133 134 134 135 137 138 136 137 139 140 140 141 143 144 142 143 145 146 146 147 149 150 148 149 151 152 152 153 155 156 154 155 157 158 158 159 161 162 162 164 164 166 170 174 177 179 186 193 202 209 217 224 234 254 276 317 346 356 360 366 374 379 382 385 387 390 392 395 397 400 400 401 402 404
40 40 40 40 40 39 37 36 34 34 34 34 34 34 34 34 34 34 34 34 34 34 34 34 34 34 34 34 34 34 34 34 34 34 34 34 34 34 34 34 34 34 34 34 36 36 36 36 36 36 36 36 36 36 36 36 38 38 38 38 38 38 38 38 36 37 39 40 40 40 40 40 40 40 40 40 42 42 42 42 40 41 43 44 42 43 45 46 46 47 49 50 48 49 51 52 52 52 52 52 52 52 52 52 50 50 50 50 52 52 52 52 50 50 50 50 50 50 50 50 50 50 50 50 52 52 52 52 54 54 54 54 52 52 52 52 54 54 54 54 56 56 56 56 56 56 56 56 58 58 58 58 60 60 60 60 62 62 62 62 64 64 64 64 64 65 67 68 73 86 109 117 118 119 121 122 124 125 127 128 128 129 131 132 134 135 137 138 136 137 139 140 140 141 143 144 144 145 147 148 146 147 149 150 148 149 151 152 152 153 155 156 156 157 159 160 158 159 161 162 162 163 165 166 170 172 175 178 186 190 197 201 212 219 228 245 271 313 344 358 360 366 374 380 384 385 387 388 392 393 395 396 398 399 401 402
40 40 40 40 40 39 37 36 34 34 34 34 34 34 34 34 34 34 34 34 34 34 34 34 34 34 34 34 34 34 34 34 34 34 34 34 34 34 34 34 34 34 34 34 36 36 36 36 36 36 36 36 36 36 36 36 38 38 38 38 38 38 38 38 36 37 39 40 40 40 40 40 40 40 40 40 42 42 42 42 40 41 43 44 42 43 45 46 46 47 49 50 48 49 51 52 52 52 52 52 52 52 52 52 51 51 51 51 53 53 53 53 51 51 51 51 51 51 51 51 51 51 51 51 53 53 53 53 54 54 54 54 53 53 53 53 55 55 55 55 57 57 57 57 57 57 57 57 59 59 59 59 61 61 61 61 63 63 63 63 65 65 65 65 65 66 68 69 73 86 109 117 118 119 121 122 124 125 127 128 128 129 131 132 134 135 137 138 136 137 139 140 140 141 143 144 144 145 147 148 146 147 149 150 148 149 151 152 152 153 155 156 156 157 159 160 158 159 161 162 162 163 165 166 169 171 174 176 184 188 195 199 203 210 218 234 262 309 343 358 365 369 377 382 385 386 388 389 392 393 395 396 398 399 401 402
40 40 40 40 40 39 37 36 34 34 34 34 34 34 34 34 34 34 34 34 34 34 34 34 34 34 34 34 34 34 34 34 34 34 34 34 34 34 34 34 34 34 34 34 36 36 36 36 36 36 36 36 36 36 36 36 38 38 38 38 38 38 38 38 36 37 39 40 40 40 40 40 40 40 40 40 42 42 42 42 40 41 43 44 42 43 45 46 46 47 49 50 48 49 51 52 52 52 52 52 52 52 52 52 53 53 53 53 55 55 55 55 53 53 53 53 53 53 53 53 53 53 53 53 55 55 55 55 54 54 54 54 55 55 55 55 57 57 57 57 59 59 59 59 59 59 59 59 61 61 61 61 63 63 63 63 65 65 65 65 67 67 67 67 67 68 69 70 73 86 109 117 118 119 121 122 124 125 127 128 128 129 131 132 134 135 137 138 136 137 139 140 140 141 143 144 144 145 147 148 146 147 149 150 148 149 151 152 152 153 155 156 156 157 159 160 158 159 161 162 162 163 165 166 167 169 173 175 180 185 191 196 204 211 217 231 254 308 348 362 371 375 381 385 387 388 389 390 392 393 395 396 398 399 401 402
40 40 40 40 40 39 37 36 34 34 34 34 34 34 34 34 34 34 34 34 34 34 34 34 34 34 34 34 34 34 34 34 34 34 34 34 34 34 34 34 34 34 34 34 36 36 36 36 36 36 36 36 36 36 36 36 38 38 38 38 38 38 38 38 36 37 39 40 40 40 40 40 40 40 40 40 42 42 42 42 40 41 43 44 42 43 45 46 46 47 49 50 48 49 51 52 52 52 52 52 52 52 52 52 54 54 54 54 56 56 56 56 54 54 54 54 54 54 54 54 54 54 54 54 56 56 56 56 54 54 54 54 56 56 56 56 58 58 58 58 60 60 60 60 60 60 60 60 62 62 62 62 64 64 64 64 66 66 66 66 68 68 68 68 68 69 70 72 73 86 109 117 118 119 121 122 124 125 127 128 128 129 131 132 134 135 137 138 136 137 139 140 140 141 143 144 144 145 147 148 146 147 149 150 148 149 151 152 152 153 155 156 156 157 159 160 158 159 161 162 162 163 165 166 166 169 171 174 178 183 189 193 203 208 213 227 251 311 355 368 376 380 384 387 388 389 390 392 392 393 395 396 398 399 401 402
38 38 38 38 42 41 39 38 38 37 35 34 34 34 34 34 34 34 34 34 34 34 34 34 34 34 34 34 34 34 34 34 34 34 34 34 34 34 34 34 34 34 34 34 36 36 36 36 36 36 36 36 36 36 36 36 36 37 39 40 38 38 38 38 36 37 39 40 40 40 40 40 40 41 43 44 42 42 42 42 44 44 44 44 42 43 45 46 46 47 49 50 50 51 53 54 54 54 54 54 54 54 54 54 54 54 54 54 54 54 54 54 52 52 52 52 54 54 54 54 54 54 54 54 56 56 56 56 56 56 56 56 56 56 56 56 56 56 56 56 58 58 58 58 60 60 60 60 62 62 62 62 64 64 64 64 66 66 66 66 68 68 68 68 68 69 71 72 73 83 105 114 116 117 119 120 122 123 125 126 128 129 131 132 132 133 135 136 136 137 139 140 140 141 143 144 144 145 147 148 146 147 149 150 150 151 153 154 154 154 154 154 154 155 157 158 158 159 161 162 162 163 165 166 168 169 171 172 175 180 187 192 195 200 206 220 253 325 358 375 376 379 381 384 388 389 391 392 392 393 395 396 396 397 399 400
39 39 39 39 42 41 39 38 38 37 35 34 34 34 34 34 34 34 34 34 34 34 34 34 34 34 34 34 34 34 34 34 34 34 34 34 34 34 34 34 34 34 34 34 36 36 36 36 36 36 36 36 36 36 36 36 36 37 39 40 38 38 38 38 36 37 39 40 40 40 40 40 40 41 43 44 42 42 42 42 44 44 44 44 42 43 45 46 46 47 49 50 50 51 53 54 54 54 54 54 54 54 54 54 54 54 54 54 54 54 54 54 53 53 53 53 55 55 55 55 55 55 55 55 56 56 56 56 56 56 56 56 57 57 57 57 57 57 57 57 59 59 59 59 61 61 61 61 63 63 63 63 65 65 65 65 67 67 67 67 69 69 69 69 69 70 72 73 74 83 104 113 116 117 119 120 122 123 125 126 128 129 131 132 132 133 135 136 136 137 139 140 140 141 143 144 144 145 147 148 146 147 149 150 150 151 153 154 154 154 154 154 154 155 157 158 158 159 161 162 162 163 165 166 168 169 171 172 175 178 184 188 188 193 197 211 253 338 366 374 377 379 383 385 388 389 391 392 392 393 395 396 396 397 399 400
41 41 41 41 42 41 39 38 38 37 35 34 34 34 34 34 34 34 34 34 34 34 34 34 34 34 34 34 34 34 34 34 34 34 34 34 34 34 34 34 34 34 34 34 36 36 36 36 36 36 36 36 36 36 36 36 36 37 39 40 38 38 38 38 36 37 39 40 40 40 40 40 40 41 43 44 42 42 42 42 44 44 44 44 42 43 45 46 46 47 49 50 50 51 53 54 54 54 54 54 54 54 54 54 54 54 54 54 54 54 54 54 55 55 55 55 57 57 57 57 57 57 57 57 56 56 56 56 56 56 56 56 59 59 59 59 59 59 59 59 61 61 61 61 63 63 63 63 65 65 65 65 67 67 67 67 69 69 69 69 71 71 71 71 71 72 73 74 77 84 104 111 116 117 119 120 122 123 125 126 128 129 131 132 132 133 135 136 136 137 139 140 140 141 143 144 144 145 147 148 146 147 149 150 150 151 153 154 154 154 154 154 154 155 157 158 158 159 161 162 162 163 165 166 168 169 171 172 174 176 180 183 184 187 191 203 256 352 372 375 379 381 384 386 388 389 391 392 392 393 395 396 396 397 399 400
42 42 42 42 42 41 39 38 38 37 35 34 34 34 34 34 34 34 34 34 34 34 34 34 34 34 34 34 34 34 34 34 34 34 34 34 34 34 34 34 34 34 34 34 36 36 36 36 36 36 36 36 36 36 36 36 36 37 39 40 38 38 38 38 36 37 39 40 40 40 40 40 40 41 43 44 42 42 42 42 44 44 44 44 42 43 45 46 46 47 49 50 50 51 53 54 54 54 54 54 54 54 54 54 54 54 54 54 54 54 54 54 56 56 56 56 58 58 58 58 58 58 58 58 56 56 56 56 56 56 56 56 60 60 60 60 60 60 60 60 62 62 62 62 64 64 64 64 66 66 66 66 68 68 68 68 70 70 70 70 72 72 72 72 72 73 74 76 78 84 103 110 116 117 119 120 122 123 125 126 128 129 131 132 132 133 135 136 136 137 139 140 140 141 143 144 144 145 147 148 146 147 149 150 150 151 153 154 154 154 154 154 154 155 157 158 158 159 161 162 162 163 165 166 168 169 171 172 172 175 177 179 184 186 188 201 263 358 373 381 380 382 385 388 388 389 391 392 392 393 395 396 396 397 399 400
42 42 42 42 42 41 39 38 38 37 35 34 34 34 34 34 34 34 34 34 34 34 34 34 34 34 34 34 34 34 34 34 34 34 34 34 34 34 34 34 34 34 34 34 36 36 36 36 36 36 36 36 36 36 36 36 36 37 39 40 38 38 38 38 36 37 39 40 40 40 40 40 42 42 42 42 42 42 42 42 44 44 44 44 44 45 47 48 46 47 49 50 54 54 54 54 56 56 56 56 56 56 56 56 56 56 56 56 56 56 56 56 54 54 54 54 56 56 56 56 58 58 58 58 58 58 58 58 56 56 56 56 58 58 58 58 60 60 60 60 62 62 62 62 64 64 64 64 66 66 66 66 68 68 68 68 68 68 68 68 70 70 70 70 72 73 75 76 74 84 99 110 114 115 117 118 120 121 123 124 126 127 129 130 132 133 135 136 136 137 139 140 140 141 143 144 142 143 145 146 146 147 149 150 150 151 153 154 154 154 154 154 154 155 157 158 158 159 161 162 162 163 165 166 166 167 169 170 172 174 177 180 186 185 190 199 271 365 376 380 384 385 387 388 388 389 391 392 392 393 395 396 396 397 399 400
42 42 42 42 42 41 39 38 38 37 35 34 34 34 34 34 34 34 34 34 34 34 34 34 34 34 34 34 34 34 34 34 34 34 34 34 34 34 34 34 34 34 34 34 36 36 36 36 36 36 36 36 36 36 36 36 36 37 39 40 38 38 38 38 36 37 39 40 40 40 40 40 42 42 42 42 42 42 42 42 44 44 44 44 44 45 47 48 46 47 49 50 54 54 54 54 56 56 56 56 56 56 56 56 56 56 56 56 56 56 56 56 55 55 55 55 57 57 57 57 58 58 58 58 58 58 58 58 57 57 57 57 59 59 59 59 61 61 61 61 63 63 63 63 65 65 65 65 67 67 67 67 69 69 69 69 69 69 69 69 71 71 71 71 73 74 76 77 75 82 96 108 114 115 117 118 120 121 123 124 126 127 129 130 132 133 135 136 136 137 139 140 140 141 143 144 142 143 145 146 146 147 149 150 150 151 153 154 154 154 154 154 154 155 157 158 158 159 161 162 162 163 165 166 166 167 169 170 171 173 176 178 180 188 189 203 293 379 376 382 384 385 387 388 388 389 391 392 392 393 395 396 396 397 399 400
42 42 42 42 42 41 39 38 38 37 35 34 34 34 34 34 34 34 34 34 34 34 34 34 34 34 34 34 34 34 34 34 34 34 34 34 34 34 34 34 34 34 34 34 36 36 36 36 36 36 36 36 36 36 36 36 36 37 39 40 38 38 38 38 36 37 39 40 40 40 40 40 42 42 42 42 42 42 42 42 44 44 44 44 44 45 47 48 46 47 49 50 54 54 54 54 56 56 56 56 56 56 56 56 56 56 56 56 56 56 56 56 57 57 57 57 59 59 59 59 58 58 58 58 58 58 58 58 59 59 59 59 61 61 61 61 63 63 63 63 65 65 65 65 67 67 67 67 69 69 69 69 71 71 71 71 71 71 71 71 73 73 73 73 75 76 77 78 78 79 92 106 114 115 117 118 120 121 123 124 126 127 129 130 132 133 135 136 136 137 139 140 140 141 143 144 142 143 145 146 146 147 149 150 150 151 153 154 154 154 154 154 154 155 157 158 158 159 161 162 162 163 165 166 166 167 169 170 169 171 175 177 182 187 185 230 334 384 379 384 384 385 387 388 388 389 391 392 392 393 395 396 396 397 399 400
42 42 42 42 42 41 39 38 38 37 35 34 34 34 34 34 34 34 34 34 34 34 34 34 34 34 34 34 34 34 34 34 34 34 34 34 34 34 34 34 34 34 34 34 36 36 36 36 36 36 36 36 36 36 36 36 36 37 39 40 38 38 38 38 36 37 39 40 40 40 40 40 42 42 42 42 42 42 42 42 44 44 44 44 44 45 47 48 46 47 49 50 54 54 54 54 56 56 56 56 56 56 56 56 56 56 56 56 56 56 56 56 58 58 58 58 60 60 60 60 58 58 58 58 58 58 58 58 60 60 60 60 62 62 62 62 64 64 64 64 66 66 66 66 68 68 68 68 70 70 70 70 72 72 72 72 72 72 72 72 74 74 74 74 76 77 78 80 79 78 89 105 114 115 117 118 120 121 123 124 126 127 129 130 132 133 135 136 136 137 139 140 140 141 143 144 142 143 145 146 146 147 149 150 150 151 153 154 154 154 154 154 154 155 157 158 158 159 161 162 162 163 165 166 166 167 169 170 168 171 173 176 184 185 198 292 368 377 384 387 384 385 387 388 388 389 391 392 392 393 395 396 396 397 399 400
42 42 42 42 44 43 41 40 40 39 37 36 36 36 36 36 34 34 34 34 34 34 34 34 34 34 34 34 34 34 34 34 34 34 34 34 34 34 34 34 36 36 36 36 36 36 36 36 36 36 36 36 36 36 36 36 38 38 38 38 38 38 38 38 40 40 40 40 40 40 40 40 42 42 42 42 40 41 43 44 44 44 44 44 46 46 46 46 46 49 51 54 56 56 56 56 54 54 54 54 58 58 58 58 58 58 58 58 56 56 56 56 58 58 58 58 60 60 60 60 60 60 60 60 60 60 60 60 58 59 60 62 62 63 64 66 66 66 66 66 68 68 68 68 70 70 70 70 70 70 70 70 70 70 70 70 72 72 72 72 74 74 74 74 74 75 77 78 77 82 86 99 111 115 118 118 120 121 123 124 124 125 127 128 130 131 133 134 134 135 137 138 138 139 141 142 142 143 145 146 146 147 149 150 148 149 151 152 154 154 154 154 154 155 157 158 158 159 161 162 162 163 165 166 164 165 167 168 174 172 173 176 182 190 250 352 381 385 386 385 386 386 386 386 390 390 390 390 390 391 393 394 398 398 398 398
42 42 42 42 44 43 41 40 40 39 37 36 36 36 36 36 34 34 34 34 34 34 34 34 34 34 34 34 34 34 34 34 34 34 34 34 34 34 34 34 36 36 36 36 36 36 36 36 36 36 36 36 36 36 36 36 38 38 38 38 38 38 38 38 40 40 40 40 40 40 40 40 42 42 42 42 40 41 43 44 44 44 44 44 46 46 46 46 47 49 53 55 56 56 56 56 55 55 55 55 58 58 58 58 58 58 58 58 57 57 57 57 59 59 59 59 60 60 60 60 60 60 60 60 61 61 61 61 61 61 63 64 65 65 67 68 69 69 69 69 69 69 69 69 71 71 71 71 71 71 71 71 71 71 71 71 73 73 73 73 75 75 75 75 75 76 78 79 78 82 85 98 108 114 118 118 120 121 123 124 124 125 127 128 130 131 133 134 134 135 137 138 138 139 141 142 142 143 145 146 146 147 149 150 148 149 151 152 154 154 154 154 154 155 157 158 158 159 161 162 162 163 165 166 164 165 167 168 172 172 174 178 178 243 333 375 382 385 387 386 387 387 387 387 390 390 390 390 390 391 393 394 397 397 397 397
42 42 42 42 44 43 41 40 40 39 37 36 36 36 36 36 34 34 34 34 34 34 34 34 34 34 34 34 34 34 34 34 34 34 34 34 34 34 34 34 36 36 36 36 36 36 36 36 36 36 36 36 36 36 36 36 38 38 38 38 38 38 38 38 40 40 40 40 40 40 40 40 42 42 42 42 40 41 43 44 44 44 44 44 46 46 46 46 49 51 54 56 56 56 56 56 57 57 57 57 58 58 58 58 58 58 58 58 59 59 59 59 61 61 61 61 60 60 60 60 60 60 60 60 63 63 63 63 63 65 66 67 67 69 70 71 71 71 71 71 71 71 71 71 73 73 73 73 73 73 73 73 73 73 73 73 75 75 75 75 77 77 77 77 77 78 79 80 81 83 84 96 106 111 117 118 120 121 123 124 124 125 127 128 130 131 133 134 134 135 137 138 138 139 141 142 142 143 145 146 146 147 149 150 148 149 151 152 154 154 154 154 154 155 157 158 158 159 161 162 162 163 165 166 164 165 167 168 170 171 175 180 218 322 363 376 383 387 389 387 389 389 389 389 390 390 390 390 390 391 393 394 395 395 395 395
42 42 42 42 44 43 41 40 40 39 37 36 36 36 36 36 34 34 34 34 34 34 34 34 34 34 34 34 34 34 34 34 34 34 34 34 34 34 34 34 36 36 36 36 36 36 36 36 36 36 36 36 36 36 36 36 38 38 38 38 38 38 38 38 40 40 40 40 40 40 40 40 42 42 42 42 40 41 43 44 44 44 44 44 46 46 46 46 50 52 55 58 56 56 56 56 58 58 58 58 58 58 58 58 58 58 58 58 60 60 60 60 62 62 62 62 60 60 60 60 60 60 60 60 64 64 64 64 66 67 68 70 70 71 72 74 74 74 74 74 72 72 72 72 74 74 74 74 74 74 74 74 74 74 74 74 76 76 76 76 78 78 78 78 78 79 80 82 82 84 83 95 103 110 117 119 120 121 123 124 124 125 127 128 130 131 133 134 134 135 137 138 138 139 141 142 142 143 145 146 146 147 149 150 148 149 151 152 154 154 154 154 154 155 157 158 158 159 161 162 162 163 165 166 164 165 167 168 169 170 176 181 279 361 366 375 385 388 390 388 390 390 390 390 390 390 390 390 390 391 393 394 394 394 394 394
42 42 42 42 42 42 42 42 42 41 39 38 36 36 36 36 36 35 33 32 34 34 34 34 34 34 34 34 34 34 34 34 34 34 34 34 34 34 34 34 36 36 36 36 36 36 36 36 36 36 36 36 38 38 38 38 38 38 38 38 38 38 38 38 40 40 40 40 38 39 41 42 42 42 42 42 44 44 44 44 46 46 46 46 44 45 47 48 50 51 53 54 58 58 58 58 56 56 56 56 60 60 60 60 60 60 60 60 60 60 60 60 60 60 60 60 62 62 62 62 60 61 62 64 64 65 66 68 70 70 70 70 72 72 72 72 74 74 74 74 74 74 74 74 74 74 74 74 72 72 72 72 74 74 74 74 74 74 74 74 76 76 76 76 80 80 80 80 84 83 87 91 101 113 116 118 118 119 121 122 124 125 127 128 130 131 133 134 134 135 137 138 138 139 141 142 142 143 145 146 146 147 149 150 148 149 151 152 152 153 155 156 154 155 157 158 158 159 161 162 160 161 163 164 164 165 167 168 165 173 168 197 314 361 368 367 382 390 388 391 392 392 392 392 390 390 390 390 394 394 394 394 392 392 392 392
42 42 42 42 42 42 42 42 42 41 39 38 36 36 36 36 36 35 33 32 34 34 34 34 34 34 34 34 34 34 34 34 34 34 34 34 34 34 34 34 36 36 36 36 36 36 36 36 36 36 36 36 38 38 38 38 38 38 38 38 38 38 38 38 40 40 40 40 38 39 41 42 42 42 42 42 44 44 44 44 46 46 46 46 45 46 48 49 51 52 54 55 58 58 58 58 57 57 57 57 60 60 60 60 60 60 60 60 61 61 61 61 61 61 61 61 63 63 63 63 63 63 65 66 67 67 69 70 71 71 71 71 73 73 73 73 74 74 74 74 74 74 74 74 74 74 74 74 73 73 73 73 75 75 75 75 75 75 75 75 77 77 77 77 81 81 81 81 84 83 87 91 100 112 114 117 118 119 121 122 124 125 127 128 130 131 133 134 134 135 137 138 138 139 141 142 142 143 145 146 146 147 149 150 148 149 151 152 152 153 155 156 154 155 157 158 158 159 161 162 160 161 163 164 164 165 167 168 167 172 169 191 300 356 352 362 382 390 388 391 392 392 392 392 390 390 390 390 393 393 393 393 392 392 392 392
42 42 42 42 42 42 42 42 42 41 39 38 36 36 36 36 36 35 33 32 34 34 34 34 34 34 34 34 34 34 34 34 34 34 34 34 34 34 34 34 36 36 36 36 36 36 36 36 36 36 36 36 38 38 38 38 38 38 38 38 38 38 38 38 40 40 40 40 38 39 41 42 42 42 42 42 44 44 44 44 46 46 46 46 47 48 49 50 53 54 55 56 58 58 58 58 59 59 59 59 60 60 60 60 60 60 60 60 63 63 63 63 63 63 63 63 65 65 65 65 65 67 68 69 69 71 72 73 73 73 73 73 75 75 75 75 74 74 74 74 74 74 74 74 74 74 74 74 75 75 75 75 77 77 77 77 77 77 77 77 79 79 79 79 83 83 83 83 84 83 87 91 98 110 112 115 118 119 121 122 124 125 127 128 130 131 133 134 134 135 137 138 138 139 141 142 142 143 145 146 146 147 149 150 148 149 151 152 152 153 155 156 154 155 157 158 158 159 161 162 160 161 163 164 164 165 167 168 169 171 170 182 250 319 331 353 382 390 388 391 392 392 392 392 390 390 390 390 391 391 391 391 392 392 392 392
42 42 42 42 42 42 42 42 42 41 39 38 36 36 36 36 36 35 33 32 34 34 34 34 34 34 34 34 34 34 34 34 34 34 34 34 34 34 34 34 36 36 36 36 36 36 36 36 36 36 36 36 38 38 38 38 38 38 38 38 38 38 38 38 40 40 40 40 38 39 41 42 42 42 42 42 44 44 44 44 46 46 46 46 48 49 50 52 54 55 56 58 58 58 58 58 60 60 60 60 60 60 60 60 60 60 60 60 64 64 64 64 64 64 64 64 66 66 66 66 68 69 70 72 72 73 74 76 74 74 74 74 76 76 76 76 74 74 74 74 74 74 74 74 74 74 74 74 76 76 76 76 78 78 78 78 78 78 78 78 80 80 80 80 84 84 84 84 84 83 87 91 97 110 112 115 118 119 121 122 124 125 127 128 130 131 133 134 134 135 137 138 138 139 141 142 142 143 145 146 146 147 149 150 148 149 151 152 152 153 155 156 154 155 157 158 158 159 161 162 160 161 163 164 164 165 167 168 170 171 170 176 197 244 292 349 382 390 388 391 392 392 392 392 390 390 390 390 390 390 390 390 392 392 392 392
42 42 42 42 42 42 42 42 40 40 40 40 36 36 36 36 36 35 33 32 34 34 34 34 34 34 34 34 34 34 34 34 34 34 34 34 34 34 34 34 36 36 36 36 36 36 36 36 36 36 36 36 38 38 38 38 38 38 38 38 36 37 39 40 40 40 40 40 40 41 43 44 40 41 43 44 44 44 44 44 46 47 49 50 48 49 51 52 54 55 57 58 60 60 60 60 62 62 62 62 62 62 62 62 62 62 62 62 64 64 64 64 64 64 64 64 66 67 69 70 72 72 72 72 74 74 74 74 76 76 76 76 76 76 76 76 76 76 76 76 74 74 74 74 74 74 74 74 76 76 76 76 76 76 76 76 80 80 80 80 80 80 80 80 82 82 82 82 86 87 89 90 95 108 112 116 118 119 121 122 122 123 125 126 128 129 131 132 132 133 135 136 138 139 141 142 142 143 145 146 146 147 149 150 148 149 151 152 152 153 155 156 154 155 157 158 158 159 161 162 162 162 162 162 164 165 167 168 168 169 171 172 177 197 249 340 383 392 391 390 379 382 389 387 388 388 388 388 388 388 388 388 390 390 390 390
42 42 42 42 42 42 42 42 40 40 40 40 36 36 36 36 36 35 33 32 34 34 34 34 34 34 34 34 34 34 34 34 34 34 34 34 34 34 34 34 36 36 36 36 36 36 36 36 36 36 36 36 38 38 38 38 38 38 38 38 36 37 39 40 40 40 40 40 40 41 43 44 40 41 43 44 44 44 44 44 46 47 49 50 49 50 52 53 54 55 57 58 60 60 60 60 62 62 62 62 62 62 62 62 63 63 63 63 65 65 65 65 67 67 67 67 67 68 70 71 73 73 73 73 75 75 75 75 76 76 76 76 76 76 76 76 76 76 76 76 75 75 75 75 75 75 75 75 77 77 77 77 77 77 77 77 80 80 80 80 81 81 81 81 83 83 83 83 86 87 89 90 95 108 112 116 118 119 121 122 122 123 125 126 128 129 131 132 132 133 135 136 138 139 141 142 142 143 145 146 146 147 149 150 148 149 151 152 152 153 155 156 154 155 157 158 158 159 161 162 162 162 162 162 164 165 167 168 168 169 171 172 169 182 210 301 359 353 323 300 308 352 378 384 387 387 387 387 388 388 388 388 390 390 390 390
42 42 42 42 42 42 42 42 40 40 40 40 36 36 36 36 36 35 33 32 34 34 34 34 34 34 34 34 34 34 34 34 34 34 34 34 34 34 34 34 36 36 36 36 36 36 36 36 36 36 36 36 38 38 38 38 38 38 38 38 36 37 39 40 40 40 40 40 40 41 43 44 40 41 43 44 44 44 44 44 46 47 49 50 51 52 53 54 54 55 57 58 60 60 60 60 62 62 62 62 62 62 62 62 65 65 65 65 67 67 67 67 69 69 69 69 69 70 71 72 75 75 75 75 77 77 77 77 76 76 76 76 76 76 76 76 76 76 76 76 77 77 77 77 77 77 77 77 79 79 79 79 79 79 79 79 80 80 80 80 83 83 83 83 85 85 85 85 86 87 89 90 95 108 112 116 118 119 121 122 122 123 125 126 128 129 131 132 132 133 135 136 138 139 141 142 142 143 145 146 146 147 149 150 148 149 151 152 152 153 155 156 154 155 157 158 158 159 161 162 162 162 162 162 164 165 167 168 168 169 171 172 171 175 184 240 266 232 203 208 234 304 367 384 385 385 385 385 388 388 388 388 390 390 390 390
42 42 42 42 42 42 42 42 40 40 40 40 36 36 36 36 36 35 33 32 34 34 34 34 34 34 34 34 34 34 34 34 34 34 34 34 34 34 34 34 36 36 36 36 36 36 36 36 36 36 36 36 38 38 38 38 38 38 38 38 36 37 39 40 40 40 40 40 40 41 43 44 40 41 43 44 44 44 44 44 46 47 49 50 52 53 54 56 54 55 57 58 60 60 60 60 62 62 62 62 62 62 62 62 66 66 66 66 68 68 68 68 72 72 72 72 70 71 72 74 76 76 76 76 78 78 78 78 76 76 76 76 76 76 76 76 76 76 76 76 78 78 78 78 78 78 78 78 80 80 80 80 80 80 80 80 80 80 80 80 84 84 84 84 86 86 86 86 86 87 89 90 95 108 112 116 118 119 121 122 122 123 125 126 128 129 131 132 132 133 135 136 138 139 141 142 142 143 145 146 146 147 149 150 148 149 151 152 152 153 155 156 154 155 157 158 158 159 161 162 162 162 162 162 164 165 167 168 168 169 171 172 170 170 175 180 182 184 183 191 191 226 325 381 384 384 384 384 388 388 388 388 390 390 390 390
42 42 42 42 42 42 42 42 42 41 39 38 40 39 37 36 36 35 33 32 34 34 34 34 34 34 34 34 34 34 34 34 34 34 34 34 34 34 34 34 32 33 35 36 36 36 36 36 36 36 36 36 38 38 38 38 38 38 38 38 36 37 39 40 40 40 40 40 38 39 41 42 40 41 43 44 42 43 45 46 46 47 49 50 52 53 55 56 56 57 59 60 60 61 63 64 64 64 64 64 64 64 64 64 64 65 67 68 68 68 68 68 72 72 72 72 74 74 74 74 76 76 76 76 76 76 76 76 78 78 78 78 78 78 78 78 78 78 78 78 76 76 76 76 78 78 78 78 80 80 80 80 80 80 80 80 80 80 80 80 84 84 84 84 86 86 86 86 88 89 91 92 98 107 113 114 116 117 119 120 122 123 125 126 128 129 131 132 132 133 135 136 136 137 139 140 140 141 143 144 144 145 147 148 148 149 151 152 154 154 154 154 154 155 157 158 160 160 160 160 162 162 162 162 166 166 166 166 168 168 168 168 170 171 173 174 176 177 178 180 179 182 250 361 382 385 382 388 388 388 388 388 388 389 391 392
42 42 42 42 42 42 42 42 42 41 39 38 40 39 37 36 36 35 33 32 34 34 34 34 34 34 34 34 34 34 34 34 34 34 34 34 34 34 34 34 32 33 35 36 36 36 36 36 36 36 36 36 38 38 38 38 38 38 38 38 36 37 39 40 40 40 40 40 38 39 41 42 40 41 43 44 42 43 45 46 46 47 49 50 52 53 55 56 56 57 59 60 60 61 63 64 64 64 64 64 65 65 65 65 65 66 68 69 69 69 69 69 72 72 72 72 74 74 74 74 76 76 76 76 76 76 76 76 78 78 78 78 78 78 78 78 78 78 78 78 77 77 77 77 79 79 79 79 80 80 80 80 81 81 81 81 81 81 81 81 84 84 84 84 86 86 86 86 88 89 91 92 98 107 113 114 116 117 119 120 122 123 125 126 128 129 131 132 132 133 135 136 136 137 139 140 140 141 143 144 144 145 147 148 148 149 151 152 154 154 154 154 154 155 157 158 160 160 160 160 162 162 162 162 166 166 166 166 168 168 168 168 170 171 173 174 175 176 177 178 179 177 186 312 380 385 383 387 389 389 389 389 389 390 392 393
42 42 42 42 42 42 42 42 42 41 39 38 40 39 37 36 36 35 33 32 34 34 34 34 34 34 34 34 34 34 34 34 34 34 34 34 34 34 34 34 32 33 35 36 36 36 36 36 36 36 36 36 38 38 38 38 38 38 38 38 36 37 39 40 40 40 40 40 38 39 41 42 40 41 43 44 42 43 45 46 46 47 49 50 52 53 55 56 56 57 59 60 60 61 63 64 64 64 64 64 67 67 67 67 67 68 69 70 71 71 71 71 72 72 72 72 74 74 74 74 76 76 76 76 76 76 76 76 78 78 78 78 78 78 78 78 78 78 78 78 79 79 79 79 81 81 81 81 80 80 80 80 83 83 83 83 83 83 83 83 84 84 84 84 86 86 86 86 88 89 91 92 98 107 113 114 116 117 119 120 122 123 125 126 128 129 131 132 132 133 135 136 136 137 139 140 140 141 143 144 144 145 147 148 148 149 151 152 154 154 154 154 154 155 157 158 160 160 160 160 162 162 162 162 166 166 166 166 168 168 168 168 170 171 173 174 173 174 176 177 176 181 184 279 376 386 386 387 391 391 391 391 391 392 393 394
42 42 42 42 42 42 42 42 42 41 39 38 40 39 37 36 36 35 33 32 34 34 34 34 34 34 34 34 34 34 34 34 34 34 34 34 34 34 34 34 32 33 35 36 36 36 36 36 36 36 36 36 38 38 38 38 38 38 38 38 36 37 39 40 40 40 40 40 38 39 41 42 40 41 43 44 42 43 45 46 46 47 49 50 52 53 55 56 56 57 59 60 60 61 63 64 64 64 64 64 68 68 68 68 68 69 70 72 72 72 72 72 72 72 72 72 74 74 74 74 76 76 76 76 76 76 76 76 78 78 78 78 78 78 78 78 78 78 78 78 80 80 80 80 82 82 82 82 80 80 80 80 84 84 84 84 84 84 84 84 84 84 84 84 86 86 86 86 88 89 91 92 98 107 113 114 116 117 119 120 122 123 125 126 128 129 131 132 132 133 135 136 136 137 139 140 140 141 143 144 144 145 147 148 148 149 151 152 154 154 154 154 154 155 157 158 160 160 160 160 162 162 162 162 166 166 166 166 168 168 168 168 170 171 173 174 172 173 175 176 175 186 175 269 373 386 387 388 392 392 392 392 392 393 394 396
42 42 42 42 42 42 42 42 42 42 42 42 40 39 37 36 36 35 33 32 34 34 34 34 34 34 34 34 34 34 34 34 34 34 34 34 34 34 34 34 34 34 34 34 35 33 34 36 36 39 35 36 37 35 35 37 37 39 36 36 38 38 40 43 40 40 40 40 38 39 41 42 40 41 43 44 44 44 44 44 46 49 51 54 54 55 57 58 58 59 61 62 62 63 65 66 62 63 65 66 68 68 68 68 72 72 72 72 72 72 72 72 74 74 74 74 76 76 76 76 78 78 78 78 78 78 78 78 76 76 76 76 80 80 80 80 80 80 80 80 80 80 80 80 82 82 82 82 80 80 80 80 84 84 84 84 84 84 84 84 84 84 84 84 88 88 88 88 90 91 93 94 97 104 111 112 116 117 119 120 122 123 125 126 126 127 129 130 132 133 135 136 136 137 139 140 140 141 143 144 144 145 147 148 148 149 151 152 152 153 155 156 154 155 157 158 158 159 161 162 162 162 162 162 164 165 167 168 168 168 168 168 168 169 171 172 174 175 177 178 179 182 183 271 376 384 383 386 390 391 393 394 392 393 395 396
42 42 42 42 42 42 42 42 42 42 42 42 40 39 37 36 36 35 33 32 34 34 34 34 34 34 34 34 34 34 34 34 34 34 34 34 34 34 34 34 34 34 34 34 32 36 37 36 36 34 39 37 38 39 41 41 36 37 39 37 38 36 36 40 40 40 40 40 38 39 41 42 40 41 43 44 44 44 44 44 46 49 51 54 54 55 57 58 58 59 61 62 62 63 65 66 63 64 66 67 68 68 68 68 72 72 72 72 72 72 72 72 74 74 74 74 76 76 76 76 78 78 78 78 78 78 78 78 77 77 77 77 80 80 80 80 80 80 80 80 81 81 81 81 82 82 82 82 81 81 81 81 84 84 84 84 85 85 85 85 85 85 85 85 88 88 88 88 90 91 93 94 97 104 111 112 116 117 119 120 122 123 125 126 126 127 129 130 132 133 135 136 136 137 139 140 140 141 143 144 144 145 147 148 148 149 151 152 152 153 155 156 154 155 157 158 158 159 161 162 162 162 162 162 164 165 167 168 168 168 168 168 168 169 171 172 174 175 177 178 179 181 184 275 377 384 383 386 390 391 393 394 392 393 395 396
42 42 42 42 42 42 42 42 42 42 42 42 40 39 37 36 36 35 33 32 34 34 34 34 34 34 34 34 34 34 34 34 34 34 34 34 34 34 34 34 34 34 34 34 35 33 32 31 36 42 55 70 76 74 67 58 53 35 36 36 41 38 37 39 40 40 40 40 38 39 41 42 40 41 43 44 44 44 44 44 46 49 51 54 54 55 57 58 58 59 61 62 62 63 65 66 65 66 67 68 68 68 68 68 72 72 72 72 72 72 72 72 74 74 74 74 76 76 76 76 78 78 78 78 78 78 78 78 79 79 79 79 80 80 80 80 80 80 80 80 83 83 83 83 82 82 82 82 83 83 83 83 84 84 84 84 87 87 87 87 87 87 87 87 88 88 88 88 90 91 93 94 97 104 111 112 116 117 119 120 122 123 125 126 126 127 129 130 132 133 135 136 136 137 139 140 140 141 143 144 144 145 147 148 148 149 151 152 152 153 155 156 154 155 157 158 158 159 161 162 162 162 162 162 164 165 167 168 168 168 168 168 168 169 171 172 174 175 177 178 181 181 185 281 379 386 385 388 390 391 393 394 392 393 395 396
42 42 42 42 42 42 42 42 42 42 42 42 40 39 37 36 36 35 33 32 34 34 34 34 34 34 34 34 34 34 34 34 34 34 34 34 34 34 34 34 34 34 34 34 37 32 38 52 89 149 169 184 187 188 182 172 155 130 110 74 47 44 41 42 40 40 40 40 38 39 41 42 40 41 43 44 44 44 44 44 46 49 51 54 54 55 57 58 58 59 61 62 62 63 65 66 66 67 68 70 68 68 68 68 72 72 72 72 72 72 72 72 74 74 74 74 76 76 76 76 78 78 78 78 78 78 78 78 80 80 80 80 80 80 80 80 80 80 80 80 84 84 84 84 82 82 82 82 84 84 84 84 84 84 84 84 88 88 88 88 88 88 88 88 88 88 88 88 90 91 93 94 97 104 111 112 116 117 119 120 122 123 125 126 126 127 129 130 132 133 135 136 136 137 139 140 140 141 143 144 144 145 147 148 148 149 151 152 152 153 155 156 154 155 157 158 158 159 161 162 162 162 162 162 164 165 167 168 168 168 168 168 168 169 171 172 174 175 177 178 182 180 185 284 380 388 387 390 390 391 393 394 392 393 395 396
44 44 44 44 44 43 41 40 42 42 42 42 42 41 39 38 38 37 35 34 34 34 34 34 34 34 34 34 34 34 34 34 34 34 34 34 34 34 34 34 38 32 36 36 35 43 94 164 198 198 198 198 202 202 202 202 200 202 196 184 140 65 34 42 38 34 42 44 40 40 41 42 42 43 43 44 43 46 42 46 41 50 52 59 56 60 63 62 66 66 63 59 63 63 64 64 68 68 66 63 72 73 71 74 74 74 74 74 74 74 74 74 76 76 76 76 78 78 78 78 76 76 76 76 80 80 80 80 80 80 80 80 80 80 80 80 82 82 82 82 80 80 80 80 84 84 84 84 84 84 84 84 86 86 86 86 88 88 88 88 88 88 88 88 88 88 88 88 92 93 95 96 98 103 109 113 114 115 117 118 120 121 123 124 126 127 129 130 132 133 135 136 136 137 139 140 140 141 143 144 144 145 147 148 148 149 151 152 152 153 155 156 154 155 157 158 158 159 161 162 160 161 163 164 164 165 167 168 168 168 168 168 170 171 173 174 176 177 179 180 182 185 186 281 379 389 388 388 390 390 390 390 394 395 397 398
44 44 44 44 44 43 41 40 42 42 42 42 42 41 39 38 38 37 35 34 34 34 34 34 34 34 34 34 34 34 34 34 34 34 34 34 34 34 34 34 33 38 31 37 74 162 200 210 205 205 205 205 203 203 203 203 200 205 207 204 210 175 100 42 41 40 44 38 40 41 43 45 45 45 44 44 47 49 43 44 57 91 117 134 150 155 160 162 156 153 144 136 105 88 75 73 73 70 70 72 71 69 70 67 74 74 74 74 74 74 74 74 76 76 76 76 78 78 78 78 77 77 77 77 80 80 80 80 80 80 80 80 81 81 81 81 82 82 82 82 81 81 81 81 84 84 84 84 85 85 85 85 86 86 86 86 88 88 88 88 89 89 89 89 89 89 89 89 92 93 95 96 97 101 108 112 114 115 117 118 120 121 123 124 126 127 129 130 132 133 135 136 136 137 139 140 140 141 143 144 144 145 147 148 148 149 151 152 152 153 155 156 154 155 157 158 158 159 161 162 160 161 163 164 164 165 167 168 168 168 168 168 170 171 173 174 176 177 179 180 183 183 189 281 380 390 389 390 391 391 391 391 394 395 397 398
44 44 44 44 44 43 41 40 42 42 42 42 42 41 39 38 38 37 35 34 34 34 34 34 34 34 34 34 34 34 34 34 34 34 34 34 34 34 34 34 35 36 34 103 180 207 200 203 203 203 203 203 205 205 205 205 205 204 203 201 201 203 193 138 81 58 50 50 47 46 44 43 43 45 49 51 53 65 88 122 161 183 194 199 197 198 196 193 195 197 195 192 192 187 174 161 148 127 98 77 70 70 79 72 74 74 74 74 74 74 74 74 76 76 76 76 78 78 78 78 79 79 79 79 80 80 80 80 80 80 80 80 83 83 83 83 82 82 82 82 83 83 83 83 84 84 84 84 87 87 87 87 86 86 86 86 88 88 88 88 91 91 91 91 91 91 91 91 92 93 95 96 95 100 106 111 114 115 117 118 120 121 123 124 126 127 129 130 132 133 135 136 136 137 139 140 140 141 143 144 144 145 147 148 148 149 151 152 152 153 155 156 154 155 157 158 158 159 161 162 160 161 163 164 164 165 167 168 168 168 168 168 170 171 173 174 176 177 179 180 181 181 197 289 382 392 390 391 393 393 393 393 394 395 397 398
44 44 44 44 44 43 41 40 42 42 42 42 42 41 39 38 38 37 35 34 34 34 34 34 34 34 34 34 34 34 34 34 34 34 34 34 34 34 34 34 34 58 141 202 203 204 203 205 203 203 203 203 206 206 206 206 206 204 203 206 207 206 207 205 194 173 162 155 153 147 140 134 134 140 149 157 170 185 193 201 201 204 199 199 200 202 204 201 201 203 203 200 202 198 198 203 200 201 187 167 127 83 74 73 74 74 74 74 74 74 74 74 76 76 76 76 78 78 78 78 80 80 80 80 80 80 80 80 80 80 80 80 84 84 84 84 82 82 82 82 84 84 84 84 84 84 84 84 88 88 88 88 86 86 86 86 88 88 88 88 92 92 92 92 92 92 92 92 92 93 95 96 94 99 105 109 114 115 117 118 120 121 123 124 126 127 129 130 132 133 135 136 136 137 139 140 140 141 143 144 144 145 147 148 148 149 151 152 152 153 155 156 154 155 157 158 158 159 161 162 160 161 163 164 164 165 167 168 168 168 168 168 170 171 173 174 176 177 179 180 187 189 216 310 382 392 392 392 394 394 394 394 394 395 397 398
44 44 44 44 42 42 42 42 42 42 42 42 42 41 39 38 36 40 31 36 32 34 34 28 30 30 37 35 32 32 32 32 34 34 34 34 36 37 36 36 67 165 207 203 204 204 204 204 204 204 204 204 204 204 204 204 206 206 206 206 206 206 206 206 206 206 206 206 201 201 201 201 202 202 202 202 204 204 204 204 204 204 204 204 202 202 202 202 204 204 204 204 204 204 204 204 202 202 202 202 192 173 120 81 70 74 71 77 76 76 76 76 78 78 78 78 80 80 80 80 80 80 80 80 82 82 82 82 82 82 82 82 80 80 80 80 84 84 84 84 82 82 82 82 86 86 86 86 86 86 86 86 88 88 88 88 90 90 90 90 92 92 92 92 94 94 94 94 94 95 97 98 100 99 103 107 111 115 119 118 120 121 123 124 126 127 129 130 130 131 133 134 136 137 139 140 140 141 143 144 144 145 147 148 148 149 151 152 152 153 155 156 154 155 157 158 158 159 161 162 160 161 163 164 164 165 167 168 167 167 168 173 172 173 171 177 174 175 184 185 190 213 256 335 379 394 395 392 396 396 396 396 396 397 399 400
44 44 44 44 42 42 42 42 42 42 42 42 42 41 39 38 38 39 38 43 95 130 125 113 70 36 36 36 33 33 33 33 35 35 35 35 34 37 31 95 177 213 202 206 204 204 204 204 204 204 204 204 204 204 204 204 206 206 206 206 206 206 206 206 206 206 206 206 205 205 205 205 203 203 203 203 204 204 204 204 204 204 204 204 203 203 203 203 204 204 204 204 204 204 204 204 203 203 203 203 203 203 202 147 98 73 81 74 76 76 76 76 78 78 78 78 80 80 80 80 80 80 80 80 82 82 82 82 82 82 82 82 81 81 81 81 84 84 84 84 83 83 83 83 86 86 86 86 87 87 87 87 88 88 88 88 90 90 90 90 92 92 92 92 94 94 94 94 94 95 97 98 100 99 103 107 111 115 119 118 120 121 123 124 126 127 129 130 130 131 133 134 136 137 139 140 140 141 143 144 144 145 147 148 148 149 151 152 152 153 155 156 154 155 157 158 158 159 161 162 160 161 163 164 164 165 167 168 166 166 170 166 168 172 179 174 177 181 181 189 244 305 329 362 382 395 395 396 397 397 397 397 397 398 400 401
44 44 44 44 42 42 42 42 42 42 42 42 42 41 39 38 42 41 29 104 163 179 170 169 164 105 38 37 35 35 35 35 37 37 37 37 32 45 120 188 208 200 202 204 204 204 204 204 204 204 204 204 204 204 204 204 206 206 206 206 206 206 206 206 206 206 206 206 206 206 206 206 205 205 205 205 204 204 204 204 204 204 204 204 205 205 205 205 204 204 204 204 204 204 204 204 205 205 205 205 204 200 200 200 168 101 74 76 76 76 76 76 78 78 78 78 80 80 80 80 80 80 80 80 82 82 82 82 82 82 82 82 83 83 83 83 84 84 84 84 85 85 85 85 86 86 86 86 89 89 89 89 88 88 88 88 90 90 90 90 92 92 92 92 94 94 94 94 94 95 97 98 100 99 103 107 111 115 119 118 120 121 123 124 126 127 129 130 130 131 133 134 136 137 139 140 140 141 143 144 144 145 147 148 148 149 151 152 152 153 155 156 154 155 157 158 158 159 161 162 160 161 163 164 164 165 167 168 165 169 168 186 211 186 170 178 180 185 177 257 357 386 375 378 387 397 397 400 399 399 399 399 399 400 401 402
44 44 44 44 42 42 42 42 42 42 42 42 42 41 39 38 38 35 52 155 175 175 178 177 173 171 111 39 36 36 36 36 38 38 38 38 75 162 198 209 200 206 202 206 204 204 204 204 204 204 204 204 204 204 204 204 206 206 206 206 206 206 206 206 206 206 206 206 204 204 204 204 206 206 206 206 204 204 204 204 204 204 204 204 206 206 206 206 204 204 204 204 204 204 204 204 206 206 206 206 205 205 205 200 200 175 103 80 76 76 76 76 78 78 78 78 80 80 80 80 80 80 80 80 82 82 82 82 82 82 82 82 84 84 84 84 84 84 84 84 86 86 86 86 86 86 86 86 90 90 90 90 88 88 88 88 90 90 90 90 92 92 92 92 94 94 94 94 94 95 97 98 100 99 103 107 111 115 119 118 120 121 123 124 126 127 129 130 130 131 133 134 136 137 139 140 140 141 143 144 144 145 147 148 148 149 151 152 152 153 155 156 154 155 157 158 158 159 161 162 160 161 163 164 164 165 167 168 169 165 184 294 348 289 204 191 189 199 255 372 410 406 399 394 391 397 398 404 400 400 400 400 400 401 402 404
44 44 44 44 46 45 43 42 42 42 42 42 42 42 42 42 38 42 66 167 170 171 173 174 168 169 170 101 47 33 39 38 38 38 47 117 184 203 202 201 204 204 204 204 204 204 204 204 204 204 204 204 204 204 204 204 206 206 206 206 206 206 206 206 206 206 206 206 206 206 206 206 206 206 206 206 204 204 204 204 204 204 204 204 202 202 202 202 202 202 202 202 202 202 202 202 204 204 204 204 204 204 204 204 204 200 168 92 77 78 76 77 80 80 80 80 80 80 80 80 82 82 82 82 82 82 82 82 84 84 84 84 84 84 84 84 86 86 86 86 84 84 84 84 88 88 88 88 90 90 90 90 88 88 88 88 92 92 92 92 94 94 94 94 96 96 96 96 96 97 99 100 100 101 103 104 108 111 117 120 120 121 123 124 126 127 129 130 130 131 133 134 136 137 139 140 140 141 143 144 144 145 147 148 148 149 151 152 152 153 155 156 154 155 157 158 158 159 161 162 162 163 165 166 166 167 169 170 165 176 216 375 391 371 281 223 227 284 383 418 417 414 410 408 401 401 401 401 402 402 402 402 402 403 405 406
44 44 44 44 46 45 43 42 42 42 42 42 42 42 42 42 40 38 82 171 170 171 173 174 176 176 178 170 122 64 49 42 55 97 167 205 205 207 203 202 204 204 204 204 204 204 204 204 204 204 204 204 204 204 204 204 206 206 206 206 206 206 206 206 206 206 206 206 206 206 206 206 206 206 206 206 205 205 205 205 205 205 205 205 203 203 203 203 203 203 203 203 203 203 203 203 204 204 204 204 204 204 204 204 205 205 210 160 97 74 79 80 80 80 80 80 80 80 80 80 82 82 82 82 82 82 82 82 84 84 84 84 84 84 84 84 86 86 86 86 85 85 85 85 88 88 88 88 90 90 90 90 89 89 89 89 92 92 92 92 94 94 94 94 96 96 96 96 96 97 99 100 100 101 103 104 108 111 117 120 120 121 123 124 126 127 129 130 130 131 133 134 136 137 139 140 140 141 143 144 144 145 147 148 148 149 151 152 152 153 155 156 154 155 157 158 158 159 161 162 162 163 165 166 166 167 169 170 170 171 263 399 399 395 361 318 339 405 425 420 421 419 416 415 413 410 407 404 405 405 405 405 403 404 406 407
44 44 44 44 46 45 43 42 42 42 42 42 42 42 42 42 41 38 88 170 170 171 173 174 173 181 177 183 183 161 131 132 163 193 203 201 202 198 203 205 204 204 204 204 204 204 204 204 204 204 204 204 204 204 204 204 206 206 206 206 206 206 206 206 206 206 206 206 206 206 206 206 206 206 206 206 207 207 207 207 207 207 207 207 205 205 205 205 205 205 205 205 205 205 205 205 204 204 204 204 204 204 204 204 207 203 196 200 160 96 74 78 80 80 80 80 80 80 80 80 82 82 82 82 82 82 82 82 84 84 84 84 84 84 84 84 86 86 86 86 87 87 87 87 88 88 88 88 90 90 90 90 91 91 91 91 92 92 92 92 94 94 94 94 96 96 96 96 96 97 99 100 100 101 103 104 108 111 117 120 120 121 123 124 126 127 129 130 130 131 133 134 136 137 139 140 140 141 143 144 144 145 147 148 148 149 151 152 152 153 155 156 154 155 157 158 158 159 161 162 162 163 165 166 166 167 169 170 174 173 287 409 404 397 398 394 410 420 424 421 422 422 421 420 415 413 410 407 411 411 411 411 410 410 412 414
44 44 44 44 46 45 43 42 42 42 42 42 42 42 42 42 40 43 82 164 170 171 173 174 179 181 180 188 191 191 195 201 201 201 202 204 204 200 207 201 204 204 204 204 204 204 204 204 204 204 204 204 204 204 204 204 206 206 206 206 206 206 206 206 206 206 206 206 206 206 206 206 206 206 206 206 208 208 208 208 208 208 208 208 206 206 206 206 206 206 206 206 206 206 206 206 204 204 204 204 204 204 204 204 207 202 205 202 202 176 124 80 80 80 80 80 80 80 80 80 82 82 82 82 82 82 82 82 84 84 84 84 84 84 84 84 86 86 86 86 88 88 88 88 88 88 88 88 90 90 90 90 92 92 92 92 92 92 92 92 94 94 94 94 96 96 96 96 96 97 99 100 100 101 103 104 108 111 117 120 120 121 123 124 126 127 129 130 130 131 133 134 136 137 139 140 140 141 143 144 144 145 147 148 148 149 151 152 152 153 155 156 154 155 157 158 158 159 161 162 162 163 165 166 166 167 169 170 174 186 344 411 411 413 411 414 417 425 424 426 420 420 420 420 419 418 418 419 414 414 414 414 417 418 420 421
44 44 44 44 44 44 44 44 42 42 42 42 42 42 42 42 39 41 74 157 171 171 176 177 182 184 187 190 194 195 197 198 202 202 202 202 202 203 205 206 204 204 204 204 204 204 204 204 204 204 204 204 206 206 206 206 206 206 206 206 206 206 206 206 206 206 206 206 206 206 206 206 206 206 206 206 206 206 206 206 206 206 206 206 206 206 206 206 206 206 206 206 206 206 206 206 206 206 206 206 206 206 206 206 204 204 204 204 200 199 193 135 83 78 81 78 82 82 82 82 84 84 84 84 84 84 84 84 86 86 86 86 84 84 84 84 88 88 88 88 86 86 86 86 90 90 90 90 92 92 92 92 94 94 94 94 94 94 94 94 96 96 96 96 98 98 98 98 100 100 100 100 102 103 105 106 106 109 115 118 118 119 121 122 124 125 127 128 130 131 133 134 136 137 139 140 140 141 143 144 144 145 147 148 148 149 151 152 152 153 155 156 156 157 159 160 158 159 161 162 164 165 167 168 167 165 170 172 167 261 392 419 412 413 414 416 419 423 424 423 422 422 422 422 420 420 420 420 420 420 420 420 422 423 424 426
44 44 44 44 44 44 44 44 42 42 42 42 42 42 42 42 44 40 67 146 169 171 174 180 185 186 190 192 195 196 198 199 202 202 202 202 202 203 205 206 204 204 204 204 204 204 204 204 204 204 204 204 206 206 206 206 206 206 206 206 206 206 206 206 206 206 206 206 206 206 206 206 206 206 206 206 206 206 206 206 206 206 206 206 206 206 206 206 206 206 206 206 206 206 206 206 206 206 206 206 206 206 206 206 204 204 204 204 203 202 203 202 155 87 81 82 82 82 82 82 84 84 84 84 84 84 84 84 86 86 86 86 85 85 85 85 88 88 88 88 87 87 87 87 90 90 90 90 92 92 92 92 94 94 94 94 94 94 94 94 96 96 96 96 98 98 98 98 100 100 100 100 102 103 105 106 106 109 115 118 118 119 121 122 124 125 127 128 130 131 133 134 136 137 139 140 140 141 143 144 144 145 147 148 148 149 151 152 152 153 155 156 156 157 159 160 158 159 161 162 164 165 167 168 169 174 173 172 201 380 426 417 415 415 417 418 420 423 425 424 423 423 423 423 423 423 423 423 423 423 423 423 425 425 427 428
44 44 44 44 44 44 44 44 42 42 42 42 42 42 42 42 45 42 56 115 156 174 178 186 187 190 193 195 197 198 199 200 202 202 202 202 202 203 205 206 204 204 204 204 204 204 204 204 204 204 204 204 206 206 206 206 206 206 206 206 206 206 206 206 206 206 206 206 206 206 206 206 206 206 206 206 206 206 206 206 206 206 206 206 206 206 206 206 206 206 206 206 206 206 206 206 206 206 206 206 206 206 206 206 204 204 204 204 204 207 200 201 203 146 84 76 82 82 82 82 84 84 84 84 84 84 84 84 86 86 86 86 87 87 87 87 88 88 88 88 89 89 89 89 90 90 90 90 92 92 92 92 94 94 94 94 94 94 94 94 96 96 96 96 98 98 98 98 100 100 100 100 102 103 105 106 106 109 115 118 118 119 121 122 124 125 127 128 130 131 133 134 136 137 139 140 140 141 143 144 144 145 147 148 148 149 151 152 152 153 155 156 156 157 159 160 158 159 161 162 164 165 167 168 165 174 171 180 285 427 420 423 417 419 420 421 421 425 427 425 425 425 425 425 425 425 425 425 425 425 425 425 427 429 430 431
44 44 44 44 44 44 44 44 42 42 42 42 42 42 42 42 44 46 46 82 140 178 186 191 190 192 195 198 198 199 200 202 202 202 202 202 202 203 205 206 204 204 204 204 204 204 204 204 204 204 204 204 206 206 206 206 206 206 206 206 206 206 206 206 206 206 206 206 206 206 206 206 206 206 206 206 206 206 206 206 206 206 206 206 206 206 206 206 206 206 206 206 206 206 206 206 206 206 206 206 206 206 206 206 204 204 204 204 205 202 206 205 202 201 132 83 82 82 82 82 84 84 84 84 84 84 84 84 86 86 86 86 88 88 88 88 88 88 88 88 90 90 90 90 90 90 90 90 92 92 92 92 94 94 94 94 94 94 94 94 96 96 96 96 98 98 98 98 100 100 100 100 102 103 105 106 106 109 115 118 118 119 121 122 124 125 127 128 130 131 133 134 136 137 139 140 140 141 143 144 144 145 147 148 148 149 151 152 152 153 155 156 156 157 159 160 158 159 161 162 164 165 167 168 172 177 176 202 361 424 427 423 420 421 422 424 423 426 428 426 426 426 426 426 428 428 428 428 428 428 428 428 430 431 432 434
44 44 44 44 44 44 44 44 42 42 42 42 44 44 44 44 39 44 48 63 119 184 193 191 194 195 197 198 198 199 201 202 202 202 202 202 204 204 204 204 204 204 204 204 204 204 204 204 204 204 204 204 206 206 206 206 206 206 206 206 206 206 206 206 208 208 208 208 208 208 208 208 208 208 208 208 208 208 208 208 208 208 208 208 208 208 208 208 208 208 208 208 208 208 208 208 208 208 208 208 206 206 206 206 206 206 206 206 204 204 204 204 203 207 191 120 81 82 86 82 82 82 82 82 86 86 86 86 88 88 88 88 88 88 88 88 90 90 90 90 90 90 90 90 92 92 92 92 94 94 94 94 96 96 96 96 94 94 94 94 98 98 98 98 100 100 100 100 102 102 102 102 102 103 105 106 108 111 113 116 118 119 121 122 124 125 127 128 130 131 133 134 136 137 139 140 142 143 145 146 146 147 149 150 150 151 153 154 156 156 156 156 158 158 158 158 158 159 161 162 163 162 165 165 174 174 189 237 386 426 422 421 422 423 425 426 426 426 426 426 428 428 428 428 428 428 428 428 428 428 428 428 430 431 433 434
44 44 44 44 44 44 44 44 42 42 42 42 44 44 44 44 44 42 46 59 127 193 189 192 195 196 198 199 198 199 201 202 202 202 202 202 204 204 204 204 204 204 204 204 204 204 204 204 204 204 204 204 206 206 206 206 206 206 206 206 206 206 206 206 208 208 208 208 208 208 208 208 208 208 208 208 208 208 208 208 208 208 208 208 208 208 208 208 208 208 208 208 208 208 208 208 208 208 208 208 206 206 206 206 206 206 206 206 205 205 205 205 209 202 208 189 115 82 81 84 83 83 83 83 86 86 86 86 88 88 88 88 88 88 88 88 90 90 90 90 91 91 91 91 92 92 92 92 94 94 94 94 96 96 96 96 95 95 95 95 98 98 98 98 100 100 100 100 102 102 102 102 102 103 105 106 108 111 113 116 118 119 121 122 124 125 127 128 130 131 133 134 136 137 139 140 142 143 145 146 146 147 149 150 150 151 153 154 156 156 156 156 158 158 158 158 158 159 161 162 164 163 164 170 196 225 236 296 394 424 423 422 423 424 426 427 427 427 427 427 429 429 429 429 429 429 429 429 429 429 429 429 431 432 434 435
44 44 44 44 44 44 44 44 42 42 42 42 44 44 44 44 43 49 43 63 157 197 190 195 197 198 199 200 198 199 201 202 202 202 202 202 204 204 204 204 204 204 204 204 204 204 204 204 204 204 204 204 206 206 206 206 206 206 206 206 206 206 206 206 208 208 208 208 208 208 208 208 208 208 208 208 208 208 208 208 208 208 208 208 208 208 208 208 208 208 208 208 208 208 208 208 208 208 208 208 206 206 206 206 206 206 206 206 207 207 207 207 202 202 209 202 172 93 83 82 85 85 85 85 86 86 86 86 88 88 88 88 88 88 88 88 90 90 90 90 93 93 93 93 92 92 92 92 94 94 94 94 96 96 96 96 97 97 97 97 98 98 98 98 100 100 100 100 102 102 102 102 102 103 105 106 108 111 113 116 118 119 121 122 124 125 127 128 130 131 133 134 136 137 139 140 142 143 145 146 146 147 149 150 150 151 153 154 156 156 156 156 158 158 158 158 158 159 161 162 163 165 162 176 237 309 317 348 407 423 423 424 425 426 427 428 429 429 429 429 431 431 431 431 431 431 431 431 431 431 431 431 433 434 435 436
44 44 44 44 44 44 44 44 42 42 42 42 44 44 44 44 44 49 39 115 192 196 194 198 198 199 200 202 198 199 201 202 202 202 202 202 204 204 204 204 204 204 204 204 204 204 204 204 204 204 204 204 206 206 206 206 206 206 206 206 206 206 206 206 208 208 208 208 208 208 208 208 208 208 208 208 208 208 208 208 208 208 208 208 208 208 208 208 208 208 208 208 208 208 208 208 208 208 208 208 206 206 206 206 206 206 206 206 208 208 208 208 208 205 206 204 203 161 90 85 86 86 86 86 86 86 86 86 88 88 88 88 88 88 88 88 90 90 90 90 94 94 94 94 92 92 92 92 94 94 94 94 96 96 96 96 98 98 98 98 98 98 98 98 100 100 100 100 102 102 102 102 102 103 105 106 108 111 113 116 118 119 121 122 124 125 127 128 130 131 133 134 136 137 139 140 142 143 145 146 146 147 149 150 150 151 153 154 156 156 156 156 158 158 158 158 158 159 161 162 164 166 160 181 302 371 379 390 415 422 425 425 426 427 428 430 430 430 430 430 432 432 432 432 432 432 432 432 432 432 432 432 434 435 436 438
44 44 44 44 44 44 44 44 42 40 39 42 44 43 44 47 44 41 63 167 198 198 198 198 200 200 200 200 202 202 202 202 202 202 202 202 204 204 204 204 204 204 204 204 204 204 204 204 204 204 204 204 206 206 206 206 206 206 206 206 206 206 206 206 208 208 208 208 208 208 208 208 208 208 208 208 208 208 208 208 208 208 208 208 210 210 210 210 210 210 210 210 210 210 210 210 208 208 208 208 208 208 208 208 206 206 206 206 206 206 206 206 206 206 206 206 202 200 134 83 88 85 86 87 88 88 88 88 90 90 90 90 90 90 90 90 92 92 92 92 94 94 94 94 94 94 94 94 96 96 96 96 98 98 98 98 100 100 100 100 100 100 100 100 102 102 102 102 104 104 104 104 106 107 109 110 108 111 113 116 118 119 121 122 124 125 127 128 130 131 133 134 136 137 139 140 142 143 145 146 148 149 151 152 152 153 155 156 156 156 156 156 158 158 158 158 160 161 163 164 164 165 166 194 352 395 402 404 417 421 424 424 426 427 429 430 428 429 431 432 432 432 432 432 434 434 434 434 434 434 434 434 434 435 437 438
44 44 44 44 44 44 44 44 45 42 39 39 44 47 46 42 43 53 144 198 199 199 199 199 200 200 200 200 202 202 202 202 202 202 202 202 204 204 204 204 204 204 204 204 204 204 204 204 204 204 204 204 206 206 206 206 206 206 206 206 206 206 206 206 208 208 208 208 208 208 208 208 208 208 208 208 208 208 208 208 209 209 209 209 210 210 210 210 210 210 210 210 210 210 210 210 208 208 208 208 208 208 208 208 206 206 206 206 206 206 206 206 206 206 206 206 205 200 193 112 87 87 85 90 88 88 88 88 90 90 90 90 90 90 90 90 92 92 92 92 94 94 94 94 94 94 94 94 96 96 96 96 98 98 98 98 100 100 100 100 100 100 100 100 102 102 102 102 104 104 104 104 106 107 109 110 108 111 113 116 118 119 121 122 124 125 127 128 130 131 133 134 136 137 139 140 142 143 145 146 148 149 151 152 152 153 155 156 156 156 156 156 158 158 158 158 160 161 163 164 164 162 163 217 383 407 410 415 418 423 426 426 427 428 430 431 429 430 432 433 433 433 433 433 435 435 435 435 435 435 435 435 435 436 438 439
44 44 44 44 44 44 44 44 41 38 37 39 41 41 42 43 44 123 193 198 201 201 201 201 200 200 200 200 202 202 202 202 202 202 202 202 204 204 204 204 204 204 204 204 204 204 204 204 204 204 204 204 206 206 206 206 206 206 206 206 206 206 206 206 208 208 208 208 208 208 208 208 208 208 208 208 208 208 208 208 211 211 211 211 210 210 210 210 210 210 210 210 210 210 210 210 208 208 208 208 208 208 208 208 206 206 206 206 206 206 206 206 206 206 206 206 204 200 201 165 96 86 92 86 88 88 88 88 90 90 90 90 90 90 90 90 92 92 92 92 94 94 94 94 94 94 94 94 96 96 96 96 98 98 98 98 100 100 100 100 100 100 100 100 102 102 102 102 104 104 104 104 106 107 109 110 108 111 113 116 118 119 121 122 124 125 127 128 130 131 133 134 136 137 139 140 142 143 145 146 148 149 151 152 152 153 155 156 156 156 156 156 158 158 158 158 160 161 163 164 165 165 162 239 399 409 413 418 419 424 427 427 429 430 431 432 431 432 433 434 435 435 435 435 437 437 437 437 437 437 437 437 437 438 439 440
44 44 44 44 44 44 44 44 43 43 47 52 67 60 66 80 136 195 200 202 202 202 202 202 200 200 200 200 202 202 202 202 202 202 202 202 204 204 204 204 204 204 204 204 204 204 204 204 204 204 204 204 206 206 206 206 206 206 206 206 206 206 206 206 208 208 208 208 208 208 208 208 208 208 208 208 208 208 208 208 212 212 212 212 210 210 210 210 210 210 210 210 210 210 210 210 208 208 208 208 208 208 208 208 206 206 206 206 206 206 206 206 206 206 206 206 205 202 207 196 153 85 91 85 88 88 88 88 90 90 90 90 90 90 90 90 92 92 92 92 94 94 94 94 94 94 94 94 96 96 96 96 98 98 98 98 100 100 100 100 100 100 100 100 102 102 102 102 104 104 104 104 106 107 109 110 108 111 113 116 118 119 121 122 124 125 127 128 130 131 133 134 136 137 139 140 142 143 145 146 148 149 151 152 152 153 155 156 156 156 156 156 158 158 158 158 160 161 163 164 166 173 163 248 403 411 419 419 421 425 428 428 430 431 432 434 432 433 434 436 436 436 436 436 438 438 438 438 438 438 438 438 438 439 440 442
44 44 44 44 46 45 43 42 42 41 63 143 173 176 179 182 196 197 199 200 200 200 200 200 202 202 202 202 202 202 202 202 202 202 202 202 204 204 204 204 204 204 204 204 204 204 204 204 206 206 206 206 206 206 206 206 206 206 206 206 206 207 209 210 208 208 208 208 208 208 208 208 208 208 208 208 210 210 210 210 210 210 210 210 210 210 210 210 210 210 210 210 210 210 210 210 210 210 210 210 208 208 208 208 208 208 208 208 206 206 206 206 206 206 206 206 204 204 204 204 192 129 86 90 88 88 88 88 92 92 92 92 92 92 92 92 94 94 94 94 96 96 96 96 96 96 96 96 96 96 96 96 100 100 100 100 102 102 102 102 102 102 102 102 106 106 106 106 106 106 106 106 110 110 110 110 110 111 113 114 116 119 121 124 124 125 127 128 130 131 133 134 136 137 139 140 144 145 147 148 148 149 151 152 152 153 155 156 156 156 156 156 158 159 161 162 160 161 163 164 166 166 168 246 401 423 418 422 424 425 427 428 430 431 433 434 434 435 437 438 438 438 438 438 438 438 438 438 440 440 440 440 440 441 443 444
44 44 44 44 46 45 43 42 41 40 120 201 194 195 198 200 196 197 199 200 200 200 200 200 202 202 202 202 202 202 202 202 202 202 202 202 204 204 204 204 204 204 204 204 204 204 204 204 206 206 206 206 206 206 206 206 206 206 206 206 206 207 209 210 208 208 208 208 208 208 208 208 208 208 208 208 210 210 210 210 210 210 210 210 210 210 210 210 210 210 210 210 210 210 210 210 210 210 210 210 208 208 208 208 208 208 208 208 206 206 206 206 206 206 206 206 204 204 204 204 204 182 113 85 89 89 89 89 92 92 92 92 92 92 92 92 94 94 94 94 96 96 96 96 97 97 97 97 97 97 97 97 100 100 100 100 102 102 102 102 103 103 103 103 106 106 106 106 106 106 106 106 110 110 110 110 110 111 113 114 116 119 121 124 124 125 127 128 130 131 133 134 136 137 139 140 144 145 147 148 148 149 151 152 152 153 155 156 156 156 156 156 158 159 161 162 160 161 163 164 166 168 169 263 407 422 421 423 425 426 428 429 431 432 434 435 435 436 438 439 439 439 439 439 439 439 439 439 441 441 441 441 441 442 444 445
44 44 44 44 46 45 43 42 41 46 150 194 196 196 197 197 196 197 199 200 200 200 200 200 202 202 202 202 202 202 202 202 202 202 202 202 204 204 204 204 204 204 204 204 204 204 204 204 206 206 206 206 206 206 206 206 206 206 206 206 206 207 209 210 208 208 208 208 208 208 208 208 208 208 208 208 210 210 210 210 210 210 210 210 210 210 210 210 210 210 210 210 210 210 210 210 210 210 210 210 208 208 208 208 208 208 208 208 206 206 206 206 206 206 206 206 204 204 204 204 204 203 174 98 91 91 91 91 92 92 92 92 92 92 92 92 94 94 94 94 96 96 96 96 99 99 99 99 99 99 99 99 100 100 100 100 102 102 102 102 105 105 105 105 106 106 106 106 106 106 106 106 110 110 110 110 110 111 113 114 116 119 121 124 124 125 127 128 130 131 133 134 136 137 139 140 144 145 147 148 148 149 151 152 152 153 155 156 156 156 156 156 158 159 161 162 160 161 163 164 164 166 174 311 415 422 424 425 427 428 429 430 433 434 435 436 437 438 439 440 441 441 441 441 441 441 441 441 443 443 443 443 443 444 445 446
44 44 44 44 46 45 43 42 42 45 155 199 197 197 196 195 196 197 199 200 200 200 200 200 202 202 202 202 202 202 202 202 202 202 202 202 204 204 204 204 204 204 204 204 204 204 204 204 206 206 206 206 206 206 206 206 206 206 206 206 206 207 209 210 208 208 208 208 208 208 208 208 208 208 208 208 210 210 210 210 210 210 210 210 210 210 210 210 210 210 210 210 210 210 210 210 210 210 210 210 208 208 208 208 208 208 208 208 206 206 206 206 206 206 206 206 204 204 204 204 207 199 203 156 92 92 92 92 92 92 92 92 92 92 92 92 94 94 94 94 96 96 96 96 100 100 100 100 100 100 100 100 100 100 100 100 102 102 102 102 106 106 106 106 106 106 106 106 106 106 106 106 110 110 110 110 110 111 113 114 116 119 121 124 124 125 127 128 130 131 133 134 136 137 139 140 144 145 147 148 148 149 151 152 152 153 155 156 156 156 156 156 158 159 161 162 160 161 163 164 172 177 260 385 421 422 427 426 428 429 430 432 434 435 436 438 438 439 440 442 442 442 442 442 442 442 442 442 444 444 444 444 444 445 446 448
44 44 44 44 46 45 43 42 41 38 124 200 197 201 192 198 198 198 198 198 200 200 200 200 202 202 202 202 202 202 202 202 202 202 202 202 202 202 202 202 204 204 204 204 204 204 204 204 204 204 204 204 206 206 206 206 206 206 206 206 206 206 206 206 208 208 208 208 208 208 208 208 208 208 208 208 210 210 210 210 210 210 210 210 210 210 210 210 210 210 210 210 210 210 210 210 210 210 210 210 210 209 207 206 208 208 208 208 208 207 205 204 206 206 206 206 204 204 204 204 201 205 202 192 127 87 92 93 94 94 94 94 96 96 96 96 96 96 96 96 98 98 98 98 100 100 100 100 100 100 100 100 100 100 100 100 104 104 104 104 106 106 106 106 108 108 108 108 110 110 110 110 112 112 112 112 112 113 115 116 118 119 121 122 124 125 127 128 130 131 133 134 136 137 139 140 144 145 147 148 150 151 153 154 152 153 155 156 153 157 159 158 159 163 166 165 164 163 163 165 208 303 380 416 424 425 427 428 428 429 431 432 436 437 439 440 438 439 441 442 444 444 444 444 444 444 444 444 444 444 444 444 444 445 447 448
44 44 44 44 46 45 43 42 45 37 76 182 197 197 198 198 198 198 198 198 200 200 200 200 202 202 202 202 202 202 202 202 202 202 202 202 202 202 202 202 204 204 204 204 204 204 204 204 204 204 204 204 206 206 206 206 206 206 206 206 206 206 206 206 208 208 208 208 208 208 208 208 208 208 208 208 209 209 209 209 210 210 210 210 210 210 210 210 210 210 210 210 210 210 210 210 210 210 210 210 210 209 207 206 208 208 208 208 208 207 205 204 206 206 206 206 204 204 204 204 202 204 202 196 168 98 92 92 94 94 94 94 96 96 96 96 96 96 96 96 98 98 98 98 100 100 100 100 101 101 101 101 101 101 101 101 104 104 104 104 106 106 106 106 108 108 108 108 110 110 110 110 112 112 112 112 112 113 115 116 118 119 121 122 124 125 127 128 130 131 133 134 136 137 139 140 144 145 147 148 150 151 153 154 153 154 156 157 157 155 157 162 165 161 161 164 166 170 182 292 379 423 423 425 424 425 427 428 428 429 431 432 436 437 439 440 439 440 442 443 444 444 444 444 444 444 444 444 445 445 445 445 445 446 448 449
44 44 44 44 46 45 43 42 44 39 42 125 193 198 195 201 198 198 198 198 200 200 200 200 202 202 202 202 202 202 202 202 202 202 202 202 202 202 202 202 204 204 204 204 204 204 204 204 204 204 204 204 206 206 206 206 206 206 206 206 206 206 206 206 208 208 208 208 208 208 208 208 208 208 208 208 207 207 207 207 210 210 210 210 210 210 210 210 210 210 210 210 210 210 210 210 210 210 210 210 210 209 207 206 208 208 208 208 208 207 205 204 206 206 206 206 204 204 204 204 203 204 202 201 186 119 92 95 94 94 94 94 96 96 96 96 96 96 96 96 98 98 98 98 100 100 100 100 103 103 103 103 103 103 103 103 104 104 104 104 106 106 106 106 108 108 108 108 110 110 110 110 112 112 112 112 112 113 115 116 118 119 121 122 124 125 127 128 130 131 133 134 136 137 139 140 144 145 147 148 150 151 153 154 155 156 157 158 151 154 165 175 169 170 172 172 169 199 334 422 425 415 423 422 424 425 427 428 428 429 431 432 436 437 439 440 441 442 443 444 444 444 444 444 444 444 444 444 447 447 447 447 447 448 449 450
44 44 44 44 46 45 43 42 39 45 42 61 144 200 196 195 198 198 198 198 200 200 200 200 202 202 202 202 202 202 202 202 202 202 202 202 202 202 202 202 204 204 204 204 204 204 204 204 204 204 204 204 206 206 206 206 206 206 206 206 206 206 206 206 208 208 208 208 208 208 208 208 208 208 208 208 206 206 206 206 210 210 210 210 210 210 210 210 210 210 210 210 210 210 210 210 210 210 210 210 210 209 207 206 208 208 208 208 208 207 205 204 206 206 206 206 204 204 204 204 204 202 203 205 200 154 97 93 94 94 94 94 96 96 96 96 96 96 96 96 98 98 98 98 100 100 100 100 104 104 104 104 104 104 104 104 104 104 104 104 106 106 106 106 108 108 108 108 110 110 110 110 112 112 112 112 112 113 115 116 118 119 121 122 124 125 127 128 130 131 133 134 136 137 139 140 144 145 147 148 150 151 153 154 156 157 158 160 199 256 293 288 259 225 202 205 226 345 416 421 421 423 423 423 424 425 427 428 428 429 431 432 436 437 439 440 442 443 444 446 444 444 444 444 444 444 444 444 448 448 448 448 448 449 450 452
44 44 44 44 44 44 44 44 42 43 45 46 91 186 193 199 198 198 198 198 198 198 198 198 200 200 200 200 202 202 202 202 202 202 202 202 202 202 202 202 204 204 204 204 204 204 204 204 204 204 204 204 204 204 204 204 206 206 206 206 206 206 206 206 206 206 206 206 208 208 208 208 208 208 208 208 208 208 208 208 208 208 208 208 210 210 210 210 210 210 210 210 210 210 210 210 210 210 210 210 208 208 208 208 208 208 208 208 208 207 205 204 206 206 206 206 204 204 204 204 204 204 204 204 198 184 117 92 94 94 94 94 98 98 98 98 98 98 98 98 98 98 98 98 102 102 102 102 104 104 104 104 106 106 106 106 104 104 104 104 108 108 108 108 108 108 108 108 112 112 112 112 114 114 114 114 114 115 117 118 118 119 121 122 124 125 127 128 130 131 133 134 136 137 139 140 144 145 147 148 150 151 153 154 153 155 173 278 355 378 386 376 358 327 300 294 336 406 414 419 420 421 423 424 424 425 427 428 430 431 433 434 436 437 439 440 440 441 443 444 444 444 444 444 446 446 446 446 448 448 448 448 448 449 451 452
44 44 44 44 44 44 44 44 42 43 45 46 53 157 193 198 198 198 198 198 198 198 198 198 200 200 200 200 202 202 202 202 202 202 202 202 202 202 202 202 204 204 204 204 204 204 204 204 204 204 204 204 204 204 204 204 206 206 206 206 206 206 206 206 206 206 206 206 208 208 208 208 208 208 208 208 208 208 208 208 208 208 208 208 210 210 210 210 210 210 210 210 210 210 210 210 210 210 210 210 208 208 208 208 208 208 208 208 208 207 205 204 206 206 206 206 204 204 204 204 204 204 204 204 201 198 145 98 95 95 95 95 98 98 98 98 99 99 99 99 99 99 99 99 102 102 102 102 104 104 104 104 106 106 106 106 105 105 105 105 108 108 108 108 109 109 109 109 112 112 112 112 114 114 114 114 114 115 117 118 118 119 121 122 124 125 127 128 130 131 133 134 136 137 139 140 144 145 147 148 150 151 153 154 157 156 269 389 392 396 395 389 386 381 379 380 404 416 416 421 420 421 423 424 424 425 427 428 430 431 433 434 436 437 439 440 440 441 443 444 444 444 444 444 446 446 446 446 448 448 448 448 448 449 451 452
44 44 44 44 44 44 44 44 42 43 45 46 45 136 195 195 198 198 198 198 198 198 198 198 200 200 200 200 202 202 202 202 202 202 202 202 202 202 202 202 204 204 204 204 204 204 204 204 204 204 204 204 204 204 204 204 206 206 206 206 206 206 206 206 206 206 206 206 208 208 208 208 208 208 208 208 208 208 208 208 208 208 208 208 210 210 210 210 210 210 210 210 210 210 210 210 210 210 210 210 208 208 208 208 208 208 208 208 208 207 205 204 206 206 206 206 204 204 204 204 204 204 204 204 197 200 169 100 97 97 97 97 98 98 98 98 101 101 101 101 101 101 101 101 102 102 102 102 104 104 104 104 106 106 106 106 107 107 107 107 108 108 108 108 111 111 111 111 112 112 112 112 114 114 114 114 114 115 117 118 118 119 121 122 124 125 127 128 130 131 133 134 136 137 139 140 144 145 147 148 150 151 153 154 153 169 320 393 398 396 396 399 395 397 400 403 405 414 420 420 420 421 423 424 424 425 427 428 430 431 433 434 436 437 439 440 440 441 443 444 444 444 444 444 446 446 446 446 448 448 448 448 448 449 451 452
44 44 44 44 44 44 44 44 42 43 45 46 43 120 194 198 198 198 198 198 198 198 198 198 200 200 200 200 202 202 202 202 202 202 202 202 202 202 202 202 204 204 204 204 204 204 204 204 204 204 204 204 204 204 204 204 206 206 206 206 206 206 206 206 206 206 206 206 208 208 208 208 208 208 208 208 208 208 208 208 208 208 208 208 210 210 210 210 210 210 210 210 210 210 210 210 210 210 210 210 208 208 208 208 208 208 208 208 208 207 205 204 206 206 206 206 204 204 204 204 204 204 204 204 200 199 185 106 98 98 98 98 98 98 98 98 102 102 102 102 102 102 102 102 102 102 102 102 104 104 104 104 106 106 106 106 108 108 108 108 108 108 108 108 112 112 112 112 112 112 112 112 114 114 114 114 114 115 117 118 118 119 121 122 124 125 127 128 130 131 133 134 136 137 139 140 144 145 147 148 150 151 153 154 153 166 317 403 406 404 402 401 404 401 401 404 410 421 415 418 420 421 423 424 424 425 427 428 430 431 433 434 436 437 439 440 440 441 443 444 444 444 444 444 446 446 446 446 448 448 448 448 448 449 451 452
46 46 46 46 44 44 44 44 44 44 44 44 46 103 201 194 196 196 196 196 198 198 198 198 200 200 200 200 200 200 200 200 202 202 202 202 202 202 202 202 202 202 202 202 204 204 204 204 204 204 204 204 204 204 204 204 204 204 204 204 206 206 206 206 206 206 206 206 206 206 206 206 208 208 208 208 208 208 208 208 208 208 208 208 208 208 208 208 210 210 210 210 210 210 210 210 210 210 210 210 208 208 208 208 208 208 208 208 210 209 207 206 206 206 206 206 204 204 204 204 206 205 203 202 202 201 193 126 100 98 100 99 98 98 98 98 100 100 100 100 102 102 102 102 102 102 102 102 106 106 106 106 108 108 108 108 108 108 108 108 108 108 108 108 112 112 112 112 114 114 114 114 116 116 116 116 116 117 119 120 120 121 123 124 124 125 127 128 130 131 133 134 138 139 141 142 142 143 145 146 146 149 151 154 157 159 284 407 408 409 411 405 408 409 410 412 414 415 417 418 422 422 422 422 424 425 427 428 430 431 433 434 436 437 439 440 442 442 442 442 442 443 445 446 446 446 446 446 448 448 448 448 450 451 453 454
46 46 46 46 44 44 44 44 44 44 44 44 43 87 189 192 196 196 196 196 198 198 198 198 200 200 200 200 200 200 200 200 201 201 201 201 202 202 202 202 202 202 202 202 203 203 203 203 204 204 204 204 204 204 204 204 204 204 204 204 206 206 206 206 206 206 206 206 206 206 206 206 208 208 208 208 208 208 208 208 208 208 208 208 208 208 208 208 210 210 210 210 210 210 210 210 210 210 210 210 208 208 208 208 208 208 208 208 210 209 207 206 206 206 206 206 204 204 204 204 206 205 203 202 201 201 199 152 102 97 102 98 99 99 99 99 101 101 101 101 103 103 103 103 103 103 103 103 106 106 106 106 108 108 108 108 109 109 109 109 109 109 109 109 112 112 112 112 114 114 114 114 116 116 116 116 116 117 119 120 120 121 123 124 124 125 127 128 130 131 133 134 138 139 141 142 142 143 145 146 146 149 151 154 151 156 229 392 415 414 411 411 411 411 413 414 415 416 418 419 422 422 422 422 424 425 427 428 430 431 433 434 436 437 439 440 442 442 442 442 442 443 445 446 446 446 446 446 448 448 448 448 450 451 453 454
